0.036914000000000 -0.687310000000000 -0.422839000000000
0.068627000000000 0.102133000000000 -0.169488000000000
0.115864000000000 -0.214728000000000 -0.424637000000000
-0.836130000000000 -0.463330000000000 0.149856000000000
-0.649749000000000 -0.566082000000000 0.391447000000000
0.100161000000000 -0.793172000000000 0.651304000000000
0.275339000000000 -0.535949000000000 -0.405416000000000
-0.649244000000000 -0.497467000000000 -0.130768000000000
0.442480000000000 -0.903314000000000 0.578539000000000
-0.494224000000000 -0.557081000000000 -0.124858000000000
-0.968384000000000 0.152345000000000 0.568549000000000
0.209339000000000 -0.965290000000000 -0.190349000000000
-0.581347000000000 -0.410120000000000 -0.217832000000000
0.139369000000000 -0.910177000000000 -0.310496000000000
0.962890000000000 -0.710341000000000 0.287700000000000
0.267586000000000 -0.744711000000000 -0.363299000000000
0.132506000000000 -0.360234000000000 0.756105000000000
-0.611757000000000 0.686802000000000 -0.278006000000000
-0.228381000000000 -0.805699000000000 -0.262273000000000
-0.512171000000000 0.049974000000000 -0.178937000000000
-0.581526000000000 -0.178491000000000 0.578584000000000
-0.514546000000000 -0.694330000000000 0.029061000000000
-0.220208000000000 0.213845000000000 0.078483000000000
-0.030579000000000 0.764324000000000 -0.245770000000000
-0.342292000000000 0.243967000000000 0.199090000000000
-0.779325000000000 0.536524000000000 0.459563000000000
0.201545000000000 0.180998000000000 -0.093762000000000
-0.434375000000000 0.462733000000000 -0.000236000000000
0.585062000000000 -0.780230000000000 -0.181983000000000
-0.080559000000000 0.211527000000000 0.134637000000000
-0.903995000000000 0.255607000000000 0.620350000000000
-0.346011000000000 -0.503486000000000 -0.204990000000000
0.802411000000000 -0.331171000000000 0.238791000000000
-0.413906000000000 -0.707305000000000 -0.107387000000000
0.013691000000000 -0.294838000000000 0.749052000000000
0.128780000000000 -0.111325000000000 0.587854000000000
-0.428447272191887 -0.984558337284210 0.059839062340407
-0.822007000000000 0.010058000000000 0.002857000000000
0.772655000000000 -0.462603000000000 -0.022920000000000
-0.096298813510350 -0.926724623418341 0.275563316396813
0.286991000000000 -0.309461000000000 0.749171000000000
0.117477000000000 -0.467990000000000 -0.458494000000000
0.089106000000000 -0.831642000000000 0.639460000000000
0.814334000000000 -0.562886000000000 0.020699000000000
0.080312000000000 -0.923473000000000 0.269515000000000
0.608528000000000 0.116050000000000 0.232650000000000
0.038422000000000 0.061743000000000 0.522921000000000
-0.755654000000000 -0.451710000000000 0.438106000000000
-0.837969000000000 -0.100602000000000 0.409303000000000
-0.151966000000000 0.017532000000000 0.490117000000000
-0.125027000000000 0.766028000000000 -0.110920000000000
0.023775000000000 0.681395000000000 -0.192408000000000
0.206878000000000 -0.439319000000000 0.771369000000000
-0.267315000000000 -0.882713000000000 -0.340338000000000
0.513581000000000 -0.573183000000000 -0.307781000000000
-0.679692000000000 -0.366469000000000 -0.196708000000000
0.184057000000000 -0.340915000000000 -0.457192000000000
-0.247441000000000 -0.402517000000000 -0.240590000000000
0.592537000000000 -0.786742000000000 -0.138311000000000
-0.170241000000000 -0.419658000000000 -0.416146000000000
0.361281000000000 0.139077000000000 0.471344000000000
-0.443875000000000 -0.597514000000000 -0.118965000000000
-0.264346000000000 -0.297852000000000 -0.275738000000000
-0.308001000000000 -0.875367000000000 -0.287959000000000
0.354344812328893 -0.946148129084946 0.402574443774632
0.169117000000000 -0.978750000000000 -0.229897000000000
0.429050000000000 -0.111059000000000 -0.263579000000000
-0.525313000000000 0.355438000000000 -0.048404000000000
-0.732857000000000 -0.092507000000000 0.498996000000000
-0.241650000000000 0.090486000000000 -0.152858000000000
0.661968000000000 -0.773720000000000 0.425782000000000
0.355073149012072 -0.973255938604255 -0.065575644062044
0.857514000000000 -0.617249000000000 -0.022933000000000
0.082876000000000 0.828672000000000 -0.349374000000000
-0.773850000000000 -0.479371000000000 -0.042487000000000
-0.163103000000000 -0.489349000000000 0.533313000000000
-0.036173000000000 -0.255613000000000 -0.450685000000000
0.707270000000000 -0.010024000000000 0.232110000000000
-0.174382000000000 -0.118426000000000 -0.273691000000000
-0.799415000000000 -0.329966000000000 0.476973000000000
0.839812000000000 -0.687357000000000 -0.048862000000000
-0.632380000000000 0.778012000000000 -0.739607000000000
-0.308798000000000 -0.253312000000000 0.567182000000000
-0.548445000000000 0.572266000000000 0.359309000000000
-0.339406000000000 -0.911496000000000 -0.283845000000000
0.353207000000000 -0.527762000000000 0.720663000000000
0.148263000000000 0.263527000000000 0.132120000000000
-0.131818000000000 -0.556408000000000 0.528954000000000
0.612861000000000 -0.737435000000000 -0.157914000000000
0.249368000000000 -0.057042000000000 0.567474000000000
0.485567000000000 -0.791112000000000 0.549567000000000
-0.716176000000000 0.852005000000000 -0.673082000000000
-0.678989000000000 -0.245583000000000 -0.191732000000000
-0.321529176841187 -0.978466906172549 -0.036640915818549
0.218607000000000 -0.979519000000000 -0.230465000000000
-0.248164000000000 -0.164171000000000 0.573666000000000
-0.215062000000000 -0.610954000000000 -0.162882000000000
0.636667000000000 -0.587354000000000 0.536313000000000
-0.712190000000000 0.591693000000000 -0.452679000000000
-0.032533000000000 0.226653000000000 0.194730000000000
0.044389000000000 0.792302000000000 -0.219763000000000
0.998391000000000 -0.581652000000000 0.192916000000000
-0.398162000000000 -0.828783000000000 0.554601000000000
-0.712564000000000 0.582802000000000 0.093200000000000
0.357437000000000 -0.148192000000000 -0.275240000000000
0.013700000000000 -0.152871000000000 -0.304330000000000
0.650697000000000 -0.834806000000000 -0.052903000000000
-0.427439000000000 -0.761927000000000 0.227157000000000
0.000780000000000 -0.232575000000000 -0.440851000000000
-0.284914000000000 0.105888000000000 -0.150533000000000
-0.391610000000000 0.035454000000000 -0.193969000000000
-0.335745000000000 0.097463000000000 0.421772000000000
-0.418900000000000 0.420360000000000 0.132082000000000
-0.317220000000000 0.581492000000000 0.101290000000000
-0.478084000000000 0.539161000000000 0.323779000000000
0.295098000000000 0.044720000000000 0.539642000000000
-0.189600000000000 -0.327784000000000 0.560968000000000
-0.181205000000000 -0.878520000000000 0.675824000000000
0.801869000000000 -0.380152000000000 0.052488000000000
-0.660343000000000 0.613682000000000 -0.674599000000000
-0.681434000000000 0.579874000000000 -0.621671000000000
-0.260740000000000 -0.379178000000000 0.574909000000000
0.631753000000000 0.088140000000000 0.269007000000000
-0.504076000000000 0.453723000000000 0.418285000000000
-0.410992000000000 0.216555000000000 -0.045229000000000
-0.638382000000000 0.591956000000000 0.284521000000000
-0.652056000000000 -0.428792000000000 0.528958000000000
0.117363000000000 -0.548693000000000 -0.439195000000000
0.992953000000000 -0.554854000000000 0.224236000000000
0.034943000000000 -0.165258000000000 -0.350427000000000
0.488854272893447 -0.956596097509180 0.230432836238889
-0.928741000000000 -0.261323000000000 0.141182000000000
-0.041379000000000 0.222935000000000 0.149965000000000
-0.721521000000000 0.561423000000000 -0.416549000000000
0.787309000000000 -0.461120000000000 0.016290000000000
-0.121275000000000 0.026659000000000 -0.202051000000000
-0.505641000000000 0.219428000000000 0.513319000000000
-0.896558000000000 -0.112023000000000 0.080494000000000
0.125281000000000 0.143928000000000 0.484188000000000
-0.587219000000000 0.567122000000000 -0.156563000000000
-0.451708000000000 -0.663309000000000 0.392722000000000
-0.932057000000000 -0.131483000000000 0.219180000000000
-0.690165000000000 -0.287403000000000 -0.193900000000000
-0.417478000000000 0.325379000000000 0.305228000000000
-0.104676000000000 0.083383000000000 0.447644000000000
-0.807596000000000 -0.143085000000000 -0.084333000000000
0.263915000000000 0.274571000000000 0.131632000000000
-0.586198000000000 0.583303000000000 0.337906000000000
-0.940991000000000 0.386492000000000 0.347912000000000
0.345345000000000 0.263092000000000 0.101278000000000
0.362467000000000 -0.971463000000000 -0.234056000000000
-0.190486000000000 -0.971686000000000 -0.367053000000000
-0.420720000000000 -0.634006000000000 -0.126961000000000
-0.958829000000000 0.485570000000000 0.240006000000000
-0.588126000000000 0.510089000000000 -0.209561000000000
0.073724000000000 0.217227000000000 0.369040000000000
0.252488000000000 -0.816227000000000 -0.341033000000000
0.035014000000000 0.244758000000000 0.184982000000000
0.777812000000000 -0.588925000000000 0.003132000000000
-0.009940000000000 -0.661509000000000 0.672802000000000
-0.034408000000000 -0.513271000000000 0.702172000000000
-0.920850000000000 -0.289568000000000 0.211927000000000
-0.007080000000000 -0.326201000000000 -0.481657000000000
0.231624000000000 -0.936330000000000 -0.167435000000000
0.797310000000000 -0.289145000000000 0.253179000000000
-0.060869000000000 0.781665000000000 -0.155548000000000
-0.679023000000000 -0.025766000000000 -0.132533000000000
-0.344872000000000 0.616878000000000 0.091548000000000
-0.015822000000000 -0.153896000000000 0.603808000000000
0.107498497716603 -0.911150474989376 0.457151404036651
-0.465053000000000 -0.780296000000000 0.364525000000000
0.016015112501202 -0.911557205223973 0.470562529174917
-0.810379000000000 -0.389376000000000 0.432644000000000
-0.570042000000000 -0.285094000000000 0.600709000000000
0.115125000000000 -0.558640000000000 0.736097000000000
0.554975563809441 -0.966722754043231 0.193061792154590
0.657415000000000 -0.720570000000000 -0.092771000000000
0.146383000000000 -0.127960000000000 -0.288366000000000
-0.318679000000000 0.633955000000000 0.065739000000000
-0.880284000000000 0.023772000000000 0.063052000000000
-0.236848000000000 0.563679000000000 0.043414000000000
0.367737000000000 -0.765432000000000 0.650012000000000
0.762626000000000 -0.384279000000000 -0.050473000000000
-0.330805000000000 0.540807000000000 -0.067963000000000
-0.290953243393607 -0.976905309272609 0.418610547298391
-0.098749000000000 0.684056000000000 -0.183894000000000
-0.629406000000000 -0.218317000000000 0.576291000000000
-0.533130000000000 0.590043000000000 0.150840000000000
-0.447300000000000 -0.008575000000000 0.507656000000000
-0.616455000000000 -0.567526000000000 0.419648000000000
0.465210000000000 -0.298398000000000 -0.323866000000000
-0.156132000000000 -0.603442000000000 -0.336416000000000
0.479904000000000 -0.569033000000000 -0.337335000000000
-0.628735000000000 -0.108135000000000 0.550926000000000
0.714482000000000 -0.087614000000000 -0.024461000000000
-0.194865000000000 0.209350000000000 0.167029000000000
-0.712954000000000 0.751619000000000 -0.295991000000000
0.791409000000000 -0.189610000000000 0.116975000000000
0.305229000000000 -0.724314000000000 0.697399000000000
-0.588396000000000 0.660880000000000 -0.302750000000000
-0.594089000000000 0.688853000000000 -0.356403000000000
-0.605264000000000 0.348043000000000 0.516820000000000
0.438490000000000 -0.054768000000000 0.569241000000000
-0.147338478436289 -0.926881380027303 0.416413757185397
0.418964000000000 -0.945804000000000 -0.227736000000000
-0.406720048771837 -0.974843658297104 0.419884733087342
0.307428486635322 -0.970458695372030 0.002307040075613
-0.773799000000000 0.275153000000000 0.696486000000000
0.146961000000000 -0.979637000000000 -0.270599000000000
-0.791046000000000 -0.145862000000000 0.471645000000000
-0.701886000000000 0.445655000000000 0.584558000000000
0.051594344837927 -0.964751935471367 0.574191803484050
0.912285000000000 -0.721150000000000 0.015882000000000
0.086507000000000 -0.577219000000000 -0.442995000000000
-0.005275000000000 -0.698738000000000 -0.412199000000000
-0.683160000000000 0.592552000000000 0.284542000000000
0.974405000000000 -0.631098000000000 0.299137000000000
0.177740000000000 -0.179411000000000 -0.383249000000000
0.345628000000000 0.256397000000000 0.058434000000000
-0.845953000000000 0.257025000000000 -0.029856000000000
0.945011000000000 -0.555924000000000 0.329675000000000
-0.607118000000000 -0.401417000000000 0.563063000000000
-0.008724000000000 -0.045246000000000 0.561653000000000
-0.842243000000000 -0.279692000000000 0.426178000000000
0.289097000000000 -0.977992000000000 -0.208431000000000
0.809813000000000 -0.346460000000000 0.141407000000000
-0.824890000000000 -0.464311000000000 0.054106000000000
-0.195562000000000 -0.340691000000000 -0.360806000000000
-0.005847000000000 -0.940613000000000 -0.329709000000000
0.302202000000000 -0.499279000000000 -0.412509000000000
-0.153750000000000 -0.986080000000000 -0.300965000000000
-0.397758000000000 0.444774000000000 0.091957000000000
-0.962876000000000 0.088598000000000 0.419803000000000
-0.109039000000000 0.020894000000000 0.502016000000000
0.423944000000000 0.003510000000000 -0.198676000000000
-0.666378000000000 0.453783000000000 -0.265020000000000
-0.337673461149590 -0.983960881842729 -0.166570618875985
-0.731672000000000 -0.150383000000000 -0.155586000000000
-0.462952000000000 0.209745000000000 0.473439000000000
-0.790334000000000 -0.521957000000000 0.156896000000000
-0.593785000000000 0.567496000000000 -0.432383000000000
-0.101306000000000 0.202944000000000 0.099379000000000
0.162358000000000 -0.140162000000000 0.663979000000000
-0.044103000000000 -0.937826000000000 -0.342611000000000
-0.048810000000000 0.843638000000000 -0.177414000000000
0.846595000000000 -0.733626000000000 -0.037727000000000
-0.938521000000000 0.486521000000000 0.354870000000000
-0.354895277059709 -0.985177868774265 -0.007294299984644
-0.287347000000000 -0.783533000000000 0.527456000000000
-0.190078000000000 0.600808000000000 -0.122097000000000
-0.650596000000000 0.710538000000000 -0.699398000000000
-0.882747000000000 0.102887000000000 0.006510000000000
-0.561811000000000 -0.985836000000000 0.046237000000000
0.754771000000000 -0.696461000000000 0.430595000000000
-0.584942000000000 0.710899000000000 -0.571789000000000
-0.628393000000000 0.602586000000000 -0.092613000000000
0.565960000000000 -0.499780000000000 -0.282114000000000
0.544490000000000 -0.128898000000000 0.565391000000000
0.325514000000000 -0.930639000000000 0.602356000000000
-0.178993000000000 -0.685217000000000 -0.207241000000000
0.677891000000000 -0.518227000000000 -0.168505000000000
-0.451700000000000 -0.703356000000000 0.374724000000000
0.677355000000000 -0.946322000000000 0.171220000000000
-0.884347000000000 -0.286147000000000 0.008072000000000
-0.587186000000000 -0.902243000000000 -0.076364000000000
0.083397000000000 -0.173543000000000 -0.379427000000000
0.224999354757832 -0.926216651945031 0.023415980351365
-0.331113000000000 0.227261000000000 0.007743000000000
-0.586418000000000 0.681781000000000 -0.602465000000000
-0.249753000000000 0.757493000000000 0.026071000000000
-0.602929000000000 -0.818950000000000 0.078481000000000
-0.935226000000000 0.369306000000000 0.454773000000000
0.713535000000000 -0.922938000000000 0.226386000000000
-0.608977000000000 0.240212000000000 0.586778000000000
0.444919000000000 -0.876255000000000 -0.261207000000000
-0.244626000000000 -0.023325000000000 -0.235730000000000
0.244701000000000 0.186073000000000 -0.091774000000000
0.102870000000000 -0.919605000000000 0.041878000000000
-0.031448000000000 0.714921000000000 -0.124740000000000
0.761520000000000 -0.108516000000000 0.172738000000000
-0.973808000000000 0.264689000000000 0.200542000000000
-0.423371000000000 -0.616169000000000 0.461601000000000
0.104233000000000 -0.493448000000000 0.753012000000000
-0.892055000000000 0.078138000000000 0.032870000000000
-0.634038000000000 -0.623521000000000 0.288065000000000
-0.444186000000000 0.066653000000000 0.454031000000000
0.598577000000000 0.107937000000000 0.336207000000000
0.044860000000000 0.953867000000000 -0.322574000000000
-0.064726000000000 -0.553587000000000 -0.450549000000000
0.213110000000000 -0.200867000000000 -0.398409000000000
-0.203844000000000 -0.502810000000000 -0.280367000000000
-0.563199000000000 0.583798000000000 0.080100000000000
0.512700000000000 -0.636388000000000 0.614990000000000
-0.018298000000000 0.988118000000000 -0.227274000000000
-0.263910000000000 0.063814000000000 0.443958000000000
-0.746013000000000 -0.328486000000000 -0.167007000000000
0.245712000000000 -0.423581000000000 -0.433275000000000
0.631065000000000 -0.251512000000000 0.561510000000000
0.666620000000000 -0.688584000000000 -0.113829000000000
-0.167703208766091 -0.958386965500235 0.282375551301478
-0.584851000000000 0.761509000000000 -0.631768000000000
-0.448741000000000 0.339127000000000 0.360061000000000
0.429327000000000 -0.670803000000000 -0.345159000000000
0.954936000000000 -0.526634000000000 0.085472000000000
-0.642245000000000 -0.625117000000000 0.071783000000000
0.600405000000000 -0.715711000000000 0.520117000000000
0.494233000000000 -0.858285000000000 -0.197043000000000
-0.948021000000000 0.107182000000000 0.591203000000000
0.699106000000000 0.004878000000000 0.192107000000000
-0.743051000000000 0.529345000000000 0.485073000000000
0.104232000000000 -0.338874000000000 -0.468477000000000
-0.748771000000000 0.796141000000000 -0.439180000000000
-0.174915000000000 -0.532964000000000 -0.338265000000000
0.419689000000000 -0.252895000000000 0.676656000000000
0.713545000000000 -0.912178000000000 0.279131000000000
-0.025264460689887 -0.941635185647556 0.697096132460499
-0.644212000000000 0.206789000000000 -0.094310000000000
-0.823313000000000 -0.438961000000000 0.009331000000000
-0.238229000000000 -0.124103000000000 0.559607000000000
-0.542489000000000 -0.643942000000000 0.306307000000000
-0.398967000000000 -0.969608000000000 0.567563000000000
-0.532940496206501 -0.978263011108239 0.336737499083635
0.392954000000000 -0.416286000000000 0.718189000000000
-0.646942000000000 0.671731000000000 -0.173254000000000
-0.321321000000000 0.485750000000000 0.016004000000000
-0.553900000000000 -0.842004000000000 -0.038446000000000
0.414729000000000 0.240372000000000 0.103923000000000
-0.615497000000000 0.311687000000000 0.543680000000000
-0.648902000000000 -0.598386000000000 -0.005871000000000
0.207924000000000 -0.627196000000000 -0.415631000000000
0.253605000000000 -0.330744000000000 0.756555000000000
0.859240000000000 -0.672838000000000 0.410417000000000
-0.211147000000000 -0.730830000000000 -0.114828000000000
0.475211000000000 -0.358898000000000 -0.329393000000000
0.369118000000000 0.224237000000000 -0.009203000000000
0.269253000000000 0.266242000000000 0.287462000000000
0.580465000000000 -0.337340000000000 0.593111000000000
0.389661306401174 -0.955292543601621 0.580137059215763
0.026245000000000 -0.837555000000000 0.667846000000000
0.666453000000000 -0.646924000000000 -0.148427000000000
-0.060306000000000 -0.736105000000000 0.595071000000000
0.524555000000000 -0.615432000000000 -0.295070000000000
-0.817527000000000 0.067393000000000 -0.022811000000000
-0.117854000000000 -0.011782000000000 -0.240245000000000
0.285679000000000 0.272120000000000 0.249415000000000
0.219991000000000 0.028096000000000 0.561509000000000
-0.193372000000000 -0.421034000000000 -0.382721000000000
-0.277984000000000 -0.053603000000000 -0.239239000000000
0.360622000000000 -0.118260000000000 0.632327000000000
0.010719000000000 0.970881000000000 -0.293359000000000
0.497216588064585 -0.933916092228340 -0.036828996133397
0.941160000000000 -0.483634000000000 0.224980000000000
0.403869000000000 -0.904545000000000 0.589911000000000
0.065406000000000 -0.531895000000000 -0.457922000000000
0.703196000000000 -0.008614000000000 0.068786000000000
-0.027264000000000 -0.154676000000000 -0.298900000000000
-0.209186763457947 -0.948987304283112 0.449935596654895
-0.466068000000000 0.376358000000000 0.364154000000000
-0.571025000000000 -0.270640000000000 -0.227981000000000
-0.107603000000000 -0.789859000000000 -0.320804000000000
-0.679965000000000 -0.974805000000000 -0.029848000000000
-0.048258000000000 0.181241000000000 0.337471000000000
0.194894000000000 -0.253614000000000 0.742724000000000
-0.862032000000000 -0.267343000000000 -0.042538000000000
-0.850425000000000 0.276797000000000 0.670475000000000
-0.142016000000000 0.067558000000000 0.450362000000000
-0.918145000000000 -0.296924000000000 0.124420000000000
0.618887861503870 -0.955634202375778 0.235993376906814
-0.490261000000000 -0.372102000000000 0.596169000000000
0.281415510310702 -0.976750763574747 0.152666003131081
-0.819637000000000 -0.009689000000000 0.441056000000000
-0.291077000000000 0.502792000000000 -0.005773000000000
0.970588000000000 -0.723856000000000 0.180353000000000
0.020804000000000 -0.207503000000000 -0.418336000000000
0.556307000000000 0.163879000000000 0.184746000000000
0.443477000000000 -0.379783000000000 -0.346974000000000
-0.554116000000000 0.425458000000000 -0.024685000000000
-0.286497000000000 0.136728000000000 0.392852000000000
-0.734456000000000 0.540733000000000 -0.377504000000000
-0.971133000000000 0.097893000000000 0.344779000000000
-0.082898000000000 -0.091292000000000 0.578150000000000
0.030849000000000 0.168082000000000 0.428913000000000
-0.421356000000000 -0.507233000000000 0.526180000000000
-0.553747000000000 -0.586449000000000 -0.073508000000000
0.379679000000000 -0.240421000000000 -0.357067000000000
-0.888617000000000 0.217225000000000 -0.008360000000000
-0.803836000000000 -0.514321000000000 0.201044000000000
-0.926569000000000 -0.134227000000000 0.148872000000000
0.175442000000000 -0.742040000000000 -0.385036000000000
-0.119376000000000 -0.604546000000000 0.528789000000000
-0.305467000000000 -0.431248000000000 0.571857000000000
-0.677482000000000 0.616465000000000 -0.630459000000000
0.002568000000000 -0.588561000000000 0.699509000000000
-0.443464000000000 0.530579000000000 -0.029220000000000
-0.382917000000000 0.238001000000000 0.337551000000000
-0.201373000000000 0.867272000000000 -0.131744000000000
-0.513076000000000 0.416999000000000 -0.009882000000000
-0.678269000000000 0.851143000000000 -0.707720000000000
-0.112700000000000 0.063106000000000 -0.177694000000000
-0.009747000000000 -0.821819000000000 0.672398000000000
-0.519402000000000 -0.673324000000000 0.230640000000000
-0.160441000000000 0.048493000000000 -0.191997000000000
-0.675523000000000 -0.142856000000000 -0.176934000000000
-0.713651000000000 0.416883000000000 0.609024000000000
0.568940000000000 -0.414016000000000 -0.277224000000000
0.400843837956736 -0.973075055702808 -0.073871248127224
0.645791000000000 0.014970000000000 0.387281000000000
0.234566000000000 -0.657751000000000 -0.401410000000000
-0.707136000000000 0.424618000000000 -0.119845000000000
-0.884353000000000 0.377466000000000 0.057511000000000
-0.621576000000000 -0.265604000000000 -0.219015000000000
-0.694846000000000 -0.280758000000000 0.556691000000000
-0.740405000000000 -0.419924000000000 -0.118745000000000
-0.652548000000000 0.753108000000000 -0.699441000000000
-0.858460000000000 -0.428004000000000 0.080369000000000
0.797721000000000 -0.222989000000000 0.152029000000000
-0.231961000000000 0.610979000000000 -0.130160000000000
-0.054359000000000 0.141497000000000 -0.100911000000000
0.031390000000000 0.111064000000000 -0.155827000000000
-0.949848000000000 0.322992000000000 0.226624000000000
0.217325000000000 -0.086558000000000 -0.267920000000000
-0.559514000000000 -0.853313000000000 0.356205000000000
0.186388000000000 0.270439000000000 0.163929000000000
0.179402000000000 0.079485000000000 -0.192323000000000
-0.107102000000000 -0.918808000000000 -0.157015000000000
0.223660000000000 0.068184000000000 -0.216069000000000
-0.883264000000000 0.523324000000000 0.118860000000000
-0.056571000000000 0.208656000000000 0.258199000000000
-0.277145606673911 -0.938354584949820 -0.072717579587072
-0.352930000000000 -0.879955000000000 -0.209085000000000
-0.933636000000000 -0.259590000000000 0.244055000000000
-0.451544000000000 -0.229755000000000 -0.261999000000000
-0.608264000000000 0.005120000000000 -0.158748000000000
-0.657903000000000 -0.600380000000000 0.317370000000000
0.058136000000000 -0.921530000000000 0.073195000000000
0.264157000000000 -0.783775000000000 0.681959000000000
-0.706222000000000 0.317822000000000 -0.080862000000000
-0.335063994571375 -0.980137714708155 -0.081755074978071
-0.512416812348453 -0.985696313470442 0.114314995455477
0.094668000000000 -0.140367000000000 -0.304883000000000
0.630736565016230 -0.946775126075975 0.067492602550381
-0.604575000000000 -0.151310000000000 0.564261000000000
0.825613000000000 -0.512687000000000 0.067226000000000
-0.574251000000000 0.492662000000000 0.493447000000000
-0.211857000000000 -0.811096000000000 0.584151000000000
-0.268976000000000 0.684426000000000 -0.151531000000000
0.034116000000000 -0.163086000000000 0.667338000000000
0.293667000000000 -0.642056000000000 0.725216000000000
-0.800102000000000 0.342599000000000 0.659834000000000
-0.035069000000000 0.839222000000000 -0.275275000000000
-0.983685000000000 0.098816000000000 0.207692000000000
-0.493831000000000 -0.970163000000000 0.584345000000000
0.143954000000000 0.200286000000000 0.423149000000000
-0.280880000000000 0.613044000000000 0.074337000000000
0.037515000000000 -0.048287000000000 0.572602000000000
-0.182459000000000 0.073935000000000 0.441192000000000
-0.155065000000000 -0.532475000000000 -0.373683000000000
-0.510644000000000 0.569003000000000 0.316934000000000
0.799155000000000 -0.338945000000000 0.062802000000000
-0.860068000000000 0.547927000000000 0.354459000000000
-0.216448000000000 -0.690715000000000 -0.120027000000000
-0.128846000000000 0.788581000000000 -0.220380000000000
-0.143009000000000 -0.013105000000000 0.515859000000000
-0.587519000000000 0.867962000000000 -0.755200000000000
-0.787537000000000 -0.481204000000000 0.002829000000000
-0.131864047437397 -0.937341452613741 0.214638394195552
0.188803000000000 -0.977063000000000 -0.266920000000000
0.617748000000000 -0.212874000000000 0.557101000000000
-0.634427000000000 0.581370000000000 0.124285000000000
-0.823514000000000 0.330335000000000 -0.021039000000000
-0.243089000000000 0.527587000000000 -0.003985000000000
0.069271000000000 0.910630000000000 -0.353936000000000
0.697890000000000 -0.023454000000000 0.022022000000000
0.722565000000000 -0.669629000000000 0.416550000000000
0.156195000000000 0.082714000000000 0.530978000000000
0.032242000000000 0.140312000000000 -0.107378000000000
0.669540000000000 -0.554949000000000 0.513107000000000
-0.460144000000000 -0.316309000000000 -0.257349000000000
-0.073166000000000 -0.765229000000000 0.601970000000000
-0.737057000000000 0.260182000000000 0.690177000000000
-0.448471000000000 -0.629354000000000 0.419155000000000
-0.619080000000000 0.655393000000000 -0.723492000000000
0.014877000000000 -0.946303000000000 -0.207937000000000
0.314158000000000 -0.972777000000000 -0.170683000000000
-0.803647000000000 0.521955000000000 0.020375000000000
-0.481844000000000 -0.591193000000000 -0.095537000000000
0.669478000000000 -0.083995000000000 0.429134000000000
-0.063466583715307 -0.916462905975155 0.445111272083078
-0.126319000000000 -0.944099000000000 -0.358704000000000
0.560571000000000 -0.251834000000000 -0.262699000000000
-0.415058000000000 -0.409898000000000 0.583314000000000
-0.655004000000000 0.853205000000000 -0.613718000000000
-0.955496000000000 0.077340000000000 0.557906000000000
-0.789857000000000 0.031100000000000 -0.023360000000000
0.033109000000000 -0.762640000000000 -0.387279000000000
-0.467690696773357 -0.985582636947870 0.281288640392129
-0.699122000000000 -0.173560000000000 -0.178267000000000
-0.234558000000000 0.553727000000000 -0.072879000000000
-0.487454000000000 0.375146000000000 0.400780000000000
-0.898427000000000 -0.334816000000000 0.123771000000000
-0.931566000000000 -0.195952000000000 0.263446000000000
-0.057106000000000 -0.918518000000000 -0.173743000000000
0.119409000000000 -0.386097000000000 -0.467463000000000
-0.116670000000000 0.201443000000000 0.201029000000000
-0.685286000000000 0.477774000000000 -0.352292000000000
-0.280714000000000 0.574994000000000 0.081118000000000
0.748775000000000 -0.910350000000000 0.123303000000000
0.132787000000000 -0.914428000000000 -0.147660000000000
-0.125711000000000 0.123486000000000 -0.112703000000000
-0.890600000000000 0.028712000000000 0.402313000000000
0.154956000000000 -0.803049000000000 0.650861000000000
0.092058000000000 -0.917493000000000 0.657319000000000
0.664287000000000 -0.124409000000000 0.464271000000000
-0.432686636913552 -0.971407506574381 0.493961901832320
0.109634000000000 -0.156446000000000 -0.346783000000000
-0.557011000000000 0.122637000000000 -0.105860000000000
0.056617000000000 -0.915367000000000 -0.147732000000000
0.905485000000000 -0.774283000000000 0.314980000000000
0.500912000000000 -0.201497000000000 -0.267199000000000
-0.559901000000000 -0.652335000000000 0.269162000000000
0.288920000000000 0.247837000000000 0.008443000000000
-0.465902000000000 0.054716000000000 -0.185384000000000
0.758592000000000 -0.500176000000000 0.387482000000000
-0.013309000000000 -0.214594000000000 0.709425000000000
-0.944431000000000 0.443580000000000 0.199871000000000
-0.423844000000000 -0.452620000000000 0.568887000000000
-0.313306000000000 -0.211159000000000 0.563110000000000
-0.476124000000000 -0.632950000000000 0.374637000000000
-0.417413000000000 0.683782000000000 0.086362000000000
0.410368000000000 0.050336000000000 0.504580000000000
-0.069549000000000 0.749468000000000 -0.227787000000000
-0.962464000000000 0.262636000000000 0.383633000000000
-0.442144000000000 -0.726621000000000 0.421469000000000
-0.084095000000000 -0.945367000000000 -0.350875000000000
-0.620960000000000 0.898220000000000 -0.722574000000000
-0.879335000000000 0.431107000000000 0.102317000000000
-0.658578000000000 0.795065000000000 -0.703392000000000
0.211315000000000 -0.345180000000000 0.758022000000000
0.537075000000000 -0.095502000000000 0.549530000000000
-0.401871000000000 -0.928792000000000 -0.137630000000000
-0.269096000000000 -0.099305000000000 0.540361000000000
-0.084157000000000 0.715817000000000 -0.205474000000000
-0.693325000000000 0.529776000000000 0.491960000000000
-0.053148000000000 -0.057118000000000 0.565079000000000
-0.107268000000000 0.891793000000000 -0.215332000000000
-0.756351000000000 0.527658000000000 -0.136727000000000
-0.182784000000000 0.200352000000000 0.094314000000000
0.266982000000000 -0.918135000000000 -0.042216000000000
0.493260000000000 -0.227762000000000 0.634479000000000
-0.231331000000000 -0.404104000000000 0.558002000000000
-0.444928000000000 0.274290000000000 0.426665000000000
-0.825664000000000 -0.181023000000000 -0.078329000000000
-0.728535000000000 0.680093000000000 -0.158510000000000
-0.895994000000000 -0.341618000000000 0.251155000000000
0.633518000000000 -0.117599000000000 0.490926000000000
-0.313560000000000 -0.092107000000000 -0.249137000000000
-0.111177556152706 -0.923404294957787 0.377907583765358
-0.211255314437801 -0.977408584733746 0.221510009816069
-0.519414000000000 0.329204000000000 0.455832000000000
-0.456764307803763 -0.979560698646868 0.179344268169647
-0.979585000000000 0.136310000000000 0.158362000000000
-0.756288000000000 0.587818000000000 0.200743000000000
-0.766922000000000 0.710382000000000 -0.276294000000000
0.132979000000000 -0.888914000000000 0.644672000000000
-0.049251000000000 0.874841000000000 -0.269138000000000
0.428082000000000 -0.951578000000000 0.563421000000000
-0.919334000000000 -0.085619000000000 0.218661000000000
-0.756238000000000 0.146445000000000 0.701409000000000
-0.595442000000000 -0.580651000000000 -0.064860000000000
0.727801000000000 -0.576320000000000 -0.088730000000000
-0.597001000000000 0.743627000000000 -0.547104000000000
-0.481142000000000 -0.909066000000000 -0.117549000000000
-0.444816000000000 0.571703000000000 -0.037338000000000
0.825764000000000 -0.867742000000000 0.119893000000000
-0.927361000000000 0.126923000000000 0.049815000000000
0.953176000000000 -0.515434000000000 0.281446000000000
0.462207081537552 -0.963487473953543 0.416399904135027
0.528316000000000 -0.718979000000000 0.567511000000000
0.249581000000000 -0.105765000000000 0.588856000000000
0.028826000000000 0.214466000000000 0.342599000000000
0.276216000000000 -0.975923000000000 -0.247903000000000
0.394370000000000 -0.500280000000000 0.705022000000000
-0.109810000000000 -0.160264000000000 -0.293768000000000
-0.620443000000000 0.723779000000000 -0.352116000000000
0.175070000000000 -0.331284000000000 0.757249000000000
-0.376282000000000 0.477341000000000 0.111273000000000
-0.850645000000000 0.033430000000000 0.023256000000000
-0.684341000000000 0.184417000000000 0.699087000000000
-0.328410000000000 -0.588510000000000 0.546489000000000
-0.639872000000000 0.054277000000000 0.624375000000000
-0.266796000000000 -0.437183000000000 0.561246000000000
-0.590231000000000 0.696559000000000 -0.424936000000000
-0.902238000000000 -0.061191000000000 0.251807000000000
-0.344406000000000 0.747705000000000 -0.088243000000000
-0.653329000000000 0.803091000000000 -0.526537000000000
0.567428000000000 -0.375831000000000 0.609798000000000
-0.493215000000000 -0.602970000000000 0.420362000000000
-0.671452000000000 0.910670000000000 -0.683348000000000
0.466624150756119 -0.962602896286971 -0.025298804621874
-0.609540000000000 -0.971917000000000 0.476246000000000
0.798805000000000 -0.673284000000000 0.430897000000000
0.345248000000000 -0.568411000000000 -0.381046000000000
0.424777000000000 0.172787000000000 0.406282000000000
-0.177948000000000 -0.199936000000000 -0.289591000000000
-0.244727000000000 0.122218000000000 -0.123769000000000
-0.840445000000000 -0.446117000000000 0.230478000000000
0.002534000000000 -0.917522000000000 -0.099177000000000
-0.100623000000000 -0.015923000000000 0.534706000000000
-0.106145000000000 -0.228505000000000 0.633705000000000
-0.008618000000000 -0.076810000000000 -0.274489000000000
-0.188300000000000 -0.823029000000000 0.618297000000000
0.773007000000000 -0.172301000000000 0.282227000000000
0.027617000000000 -0.917823000000000 -0.066659000000000
-0.591868000000000 0.207732000000000 0.586061000000000
-0.180747000000000 0.584107000000000 0.019778000000000
0.581561000000000 -0.708613000000000 -0.222963000000000
-0.643421000000000 0.573378000000000 0.005840000000000
0.000558000000000 -0.272592000000000 -0.465060000000000
-0.339026000000000 0.169313000000000 0.329626000000000
0.961984000000000 -0.591282000000000 0.059003000000000
-0.082083000000000 -0.823879000000000 -0.336421000000000
-0.511576000000000 0.573377000000000 0.274977000000000
-0.199601000000000 -0.163538000000000 0.589220000000000
-0.565005000000000 -0.630865000000000 -0.004430000000000
0.420830055078176 -0.974148304578563 -0.022243442889917
0.601923000000000 -0.666611000000000 -0.207624000000000
-0.489128000000000 0.020791000000000 -0.200635000000000
-0.677359000000000 -0.871927000000000 0.052085000000000
-0.404286000000000 0.732992000000000 -0.014154000000000
0.494448000000000 -0.737368000000000 0.589284000000000
0.697334000000000 -0.203134000000000 0.467508000000000
-0.374758000000000 -0.922347000000000 -0.209333000000000
-0.412354000000000 0.345265000000000 0.103804000000000
-0.259256000000000 0.639679000000000 -0.142602000000000
-0.253248000000000 -0.281861000000000 0.575380000000000
-0.102319000000000 -0.469442000000000 -0.459528000000000
0.186249000000000 0.144253000000000 -0.130129000000000
0.184030135094166 -0.917748973990074 0.054635523666708
-0.102340611800555 -0.920304047059898 0.511024762945707
-0.767350000000000 0.553238000000000 -0.115658000000000
-0.193310000000000 -0.611324000000000 0.514681000000000
0.527641000000000 -0.803025000000000 -0.225841000000000
0.664260000000000 -0.082566000000000 -0.116579000000000
-0.099349000000000 -0.061558000000000 0.560118000000000
-0.771049000000000 -0.150045000000000 -0.124615000000000
0.136656000000000 -0.001358000000000 -0.262488000000000
-0.785268000000000 -0.508883000000000 0.286759000000000
-0.479457000000000 -0.705452000000000 0.158102000000000
0.668239000000000 -0.565831000000000 -0.173409000000000
-0.691378000000000 0.027296000000000 0.633975000000000
0.183362000000000 -0.503964000000000 -0.434454000000000
-0.590289000000000 -0.918852000000000 0.330034000000000
0.666823000000000 -0.308596000000000 -0.207048000000000
0.803206000000000 -0.280947000000000 0.096279000000000
-0.095600000000000 0.786525000000000 -0.136321000000000
-0.676007000000000 0.750295000000000 -0.652339000000000
-0.295793000000000 -0.032421000000000 0.510616000000000
-0.742339000000000 -0.043141000000000 -0.103426000000000
-0.005246000000000 -0.127177000000000 0.583382000000000
0.873913000000000 -0.787952000000000 0.022582000000000
-0.919558000000000 0.345843000000000 0.121795000000000
-0.010785000000000 0.696482000000000 -0.205033000000000
0.133107000000000 0.259739000000000 0.264137000000000
-0.022569000000000 0.225682000000000 0.236307000000000
0.091655000000000 0.787848000000000 -0.325534000000000
-0.912619000000000 -0.068155000000000 0.186710000000000
-0.598400000000000 0.501145000000000 -0.284613000000000
-0.163701000000000 -0.689638000000000 -0.255041000000000
0.344587000000000 0.188384000000000 -0.077956000000000
-0.189114000000000 -0.158729000000000 -0.277342000000000
0.297487444000683 -0.978450252166044 0.220269854099939
-0.934312000000000 -0.178383000000000 0.217296000000000
0.986322000000000 -0.629590000000000 0.261557000000000
-0.363408932936685 -0.971313160803809 0.492800743028757
0.524906000000000 -0.113164000000000 -0.227589000000000
-0.809188000000000 -0.118735000000000 0.444781000000000
-0.104706528019691 -0.957522890607089 0.699760306618224
-0.128289000000000 -0.839557000000000 0.676417000000000
-0.738232000000000 0.440537000000000 -0.089418000000000
-0.415590000000000 -0.202168000000000 0.592475000000000
-0.364825000000000 0.269098000000000 0.221972000000000
-0.343374000000000 -0.070151000000000 0.548441000000000
0.688965000000000 -0.360644000000000 -0.185431000000000
0.076245000000000 -0.810577000000000 -0.362060000000000
-0.540128000000000 -0.942371000000000 0.613874000000000
-0.152176000000000 0.168408000000000 -0.023464000000000
-0.267328000000000 0.669142000000000 0.017267000000000
-0.129238000000000 -0.552375000000000 -0.397215000000000
-0.455449000000000 -0.871622000000000 -0.107725000000000
0.136270000000000 -0.194875000000000 0.725271000000000
-0.500614000000000 -0.415700000000000 0.579443000000000
-0.040810000000000 -0.294060000000000 -0.465853000000000
0.478604000000000 0.212061000000000 0.135665000000000
-0.388090001245450 -0.978979543727475 0.372374093177385
-0.706442000000000 0.523267000000000 -0.523911000000000
-0.917245000000000 0.238165000000000 0.047334000000000
-0.256134000000000 0.528359000000000 0.030551000000000
-0.235464000000000 -0.971095000000000 -0.219743000000000
0.005229000000000 -0.590088000000000 -0.456972000000000
-0.555544000000000 -0.480407000000000 -0.193092000000000
-0.530738000000000 0.581642000000000 0.233808000000000
-0.893140000000000 0.138314000000000 0.643107000000000
-0.574344000000000 0.592785000000000 -0.276696000000000
-0.790985000000000 0.263132000000000 -0.056057000000000
0.637334000000000 -0.704134000000000 -0.141725000000000
0.103765000000000 -0.509388000000000 -0.451878000000000
-0.017627000000000 -0.983283000000000 -0.261089000000000
-0.760233000000000 -0.453949000000000 -0.081642000000000
-0.606996000000000 0.573718000000000 0.083085000000000
-0.946639000000000 0.171925000000000 0.596049000000000
0.297785000000000 0.005960000000000 0.548963000000000
-0.230525000000000 -0.795774000000000 -0.220106000000000
0.150926000000000 0.266282000000000 0.185130000000000
-0.732162000000000 0.297859000000000 0.676953000000000
0.800157000000000 -0.840840000000000 0.349082000000000
-0.993684000000000 0.142862000000000 0.221550000000000
0.475211000000000 -0.223974000000000 -0.287716000000000
0.911843000000000 -0.753181000000000 0.035986000000000
-0.622203000000000 0.829048000000000 -0.625270000000000
-0.060666865845693 -0.963315928479441 0.679233438414056
0.791617000000000 -0.890513000000000 0.177213000000000
0.308651000000000 -0.757632000000000 -0.356246000000000
0.500520000000000 -0.762929000000000 -0.281601000000000
0.851723000000000 -0.853085000000000 0.142561000000000
-0.206132000000000 0.690918000000000 -0.173246000000000
0.741493000000000 -0.129324000000000 0.335379000000000
0.201902000000000 0.165181000000000 0.469023000000000
0.035851000000000 0.662917000000000 -0.137797000000000
-0.601277000000000 -0.652467000000000 0.146769000000000
0.574083000000000 -0.358855000000000 -0.265916000000000
-0.438165000000000 -0.834990000000000 -0.096043000000000
-0.043032000000000 -0.758169000000000 -0.367869000000000
0.243961000000000 -0.288131000000000 0.747619000000000
0.265813000000000 0.053297000000000 -0.228465000000000
0.783197000000000 -0.385051000000000 0.345951000000000
-0.459260000000000 0.524635000000000 0.242646000000000
-0.023069000000000 -0.368209000000000 -0.482150000000000
0.271173774923597 -0.974234055275511 0.554370998366707
-0.910109000000000 0.443047000000000 0.462590000000000
0.344343000000000 -0.158320000000000 0.647102000000000
-0.118919000000000 0.178887000000000 0.003219000000000
-0.131428000000000 -0.229273000000000 0.600317000000000
-0.782585000000000 -0.005325000000000 0.573501000000000
-0.221691000000000 -0.480943000000000 -0.251865000000000
0.431660000000000 0.195326000000000 -0.014462000000000
-0.063997000000000 0.205922000000000 0.062222000000000
-0.879985000000000 -0.253096000000000 -0.008981000000000
-0.941752000000000 0.035390000000000 0.269159000000000
-0.583726000000000 0.836568000000000 -0.707000000000000
0.795584000000000 -0.251632000000000 0.224785000000000
0.827087000000000 -0.484819000000000 0.251542000000000
-0.736400000000000 -0.573677000000000 0.120512000000000
0.093154650297879 -0.960239293448245 0.642443633323472
0.498275000000000 0.031030000000000 -0.156188000000000
0.637440554542100 -0.928097800381277 0.026746925961923
-0.351425162688120 -0.984244166201611 0.031520612607524
0.066748869163978 -0.910926836430804 0.513920522660596
-0.856825000000000 0.494277000000000 0.067518000000000
0.647876000000000 -0.489433000000000 -0.197484000000000
-0.623998000000000 0.304574000000000 -0.085581000000000
-0.152682000000000 -0.969900000000000 -0.363910000000000
0.985073000000000 -0.615981000000000 0.101300000000000
-0.021358000000000 -0.368834000000000 0.758135000000000
0.319499000000000 -0.912599000000000 -0.282242000000000
-0.639352000000000 -0.010616000000000 -0.145947000000000
0.472909000000000 0.128766000000000 -0.086662000000000
-0.767315000000000 -0.347398000000000 -0.134842000000000
0.504450000000000 -0.689231000000000 -0.316392000000000
-0.545025000000000 0.108131000000000 0.530695000000000
0.300781000000000 0.085760000000000 0.516149000000000
-0.646833000000000 0.587255000000000 0.167890000000000
-0.780440000000000 0.621010000000000 -0.181989000000000
-0.007872000000000 0.877216000000000 -0.215460000000000
-0.716634000000000 -0.516278000000000 -0.045290000000000
0.625360000000000 0.088696000000000 0.311480000000000
0.522739000000000 -0.830246000000000 -0.193005000000000
0.504734000000000 -0.393413000000000 -0.315256000000000
0.978444000000000 -0.541564000000000 0.124480000000000
-0.825075000000000 -0.224667000000000 -0.089413000000000
-0.455447000000000 0.458498000000000 0.253854000000000
-0.389941000000000 -0.560373000000000 0.517650000000000
-0.633206000000000 0.882202000000000 -0.676498000000000
0.742582000000000 -0.312123000000000 0.424144000000000
-0.576187827510742 -0.975180595655072 0.399015791549000
0.296059000000000 0.111881000000000 -0.177125000000000
0.485991000000000 0.210389000000000 0.176926000000000
-0.539206311549008 -0.985244515507526 0.173333058981113
0.275474000000000 -0.957856000000000 -0.167066000000000
-0.175763000000000 0.799905000000000 -0.055294000000000
-0.913204000000000 -0.243058000000000 0.329411000000000
0.019887929852391 -0.963097261342548 0.652589874478654
0.067158000000000 -0.357029000000000 -0.476938000000000
-0.617833000000000 0.767837000000000 -0.524753000000000
-0.659229000000000 0.614201000000000 -0.059994000000000
0.424877000000000 -0.454162000000000 -0.356356000000000
-0.855538000000000 -0.005256000000000 0.366003000000000
-0.909619000000000 -0.100020000000000 0.290671000000000
-0.488421000000000 0.241291000000000 0.486359000000000
-0.624508000000000 0.563517000000000 -0.544339000000000
0.284275596581132 -0.979006784802021 0.188135662916842
-0.056038622682265 -0.925914916942512 0.173945170626121
-0.925937000000000 0.037107000000000 0.306899000000000
0.658028000000000 -0.349992000000000 -0.216017000000000
-0.729922000000000 0.574506000000000 -0.339029000000000
-0.340671000000000 -0.594839000000000 -0.159862000000000
0.939570000000000 -0.716331000000000 0.056569000000000
0.237794000000000 -0.778167000000000 -0.368732000000000
-0.238515000000000 0.172073000000000 0.338265000000000
-0.336040000000000 -0.757919000000000 -0.120728000000000
0.658241000000000 0.059082000000000 0.241036000000000
-0.663837000000000 0.013100000000000 0.560545000000000
-0.125313000000000 -0.661210000000000 0.511426000000000
-0.750984000000000 0.708595000000000 -0.471835000000000
-0.818751000000000 0.127261000000000 0.655364000000000
0.323917000000000 -0.161631000000000 -0.294323000000000
-0.007950000000000 0.224054000000000 0.077813000000000
-0.034226000000000 0.953484000000000 -0.264480000000000
-0.564427000000000 -0.514453000000000 -0.166693000000000
-0.135470259689563 -0.932608259287247 0.299090068056237
-0.096428000000000 -0.408636000000000 0.700143000000000
0.180332000000000 -0.068325000000000 -0.270300000000000
0.230100000000000 -0.461544000000000 -0.435788000000000
0.383058000000000 -0.782551000000000 -0.327390000000000
-0.720239000000000 -0.360170000000000 -0.178347000000000
-0.213716000000000 0.617949000000000 0.054486000000000
-0.762262000000000 -0.118311000000000 0.486784000000000
0.662027000000000 -0.052293000000000 -0.094421000000000
-0.915512000000000 -0.150580000000000 0.097255000000000
-0.732957000000000 -0.196578000000000 -0.166645000000000
0.777486000000000 -0.148261000000000 0.097412000000000
0.438442000000000 -0.638796000000000 0.651650000000000
-0.525396749689470 -0.985431314546761 0.211539484762196
-0.255486000000000 0.639486000000000 0.042457000000000
0.274025000000000 -0.816208000000000 0.651387000000000
-0.448481000000000 -0.980338000000000 -0.133428000000000
0.926440000000000 -0.791472000000000 0.166885000000000
-0.844196000000000 0.000257000000000 0.529695000000000
-0.450370291912093 -0.986058608164805 -0.077127155937152
-0.303476325865403 -0.966032824471796 -0.114401310505690
-0.422441000000000 0.306912000000000 0.355727000000000
-0.272645000000000 -0.094679000000000 -0.249090000000000
-0.680958000000000 -0.605928000000000 0.072410000000000
0.763461000000000 -0.111970000000000 0.106658000000000
-0.905008000000000 0.054393000000000 0.065588000000000
-0.333875525754406 -0.974311069188927 0.466123671500481
-0.688147000000000 0.308178000000000 0.647668000000000
-0.368644000000000 0.713110000000000 -0.079991000000000
-0.589047000000000 0.513537000000000 -0.016257000000000
0.796065000000000 -0.874264000000000 0.276028000000000
0.650252000000000 -0.429921000000000 -0.198098000000000
-0.477242000000000 -0.900741000000000 0.621583000000000
-0.352048000000000 -0.020277000000000 -0.224545000000000
0.816043000000000 -0.456943000000000 0.129536000000000
-0.428716000000000 -0.371899000000000 0.586766000000000
-0.491075000000000 -0.543593000000000 0.499689000000000
-0.076232000000000 -0.980283000000000 -0.316634000000000
0.414751264886097 -0.966269423964363 0.530127468291215
-0.543047000000000 0.235798000000000 -0.072727000000000
0.494816000000000 -0.492952000000000 -0.328759000000000
-0.924154000000000 -0.181937000000000 0.304332000000000
-0.713957000000000 0.637400000000000 -0.470596000000000
