-0.88539053796100 -0.54580075733700 -0.73448182904800
0.23333161508500 0.17538171704600 -0.47438619184600
-0.46401358846900 0.10372333908300 -0.28512630932200
0.36699656353100 0.34969268871300 0.15679372615600
-0.42374597599700 0.17338541871100 0.48708984070400
0.02422993462100 0.17850617050900 -0.58583454783400
-0.18750049176300 0.19875959889300 0.82713059939400
-0.35252335889100 0.15642688969200 0.66869980096000
0.04549827831400 -0.71463174689200 0.34985104882400
0.37317909176500 0.27818932560500 -0.13605137168400
-0.18662989630500 0.01900600371100 0.66045343687800
-0.23175383281300 0.48928765936200 0.13015802139900
0.66128558813300 0.14394948019600 0.20969607781700
-0.33291466119300 -0.48221190511200 -0.81599678482100
-0.15683669807300 -0.70395261580700 -0.14986269990000
0.24566494029900 0.61033397542500 0.37549130185300
0.55636514724400 -0.34732197450500 0.34595342908100
-0.28045529413900 -0.69960987359800 -0.13148164985100
-0.33214934905300 -0.61619790418500 -0.74163924590300
0.48071824100400 -0.30419261142200 -0.69149179507500
0.04910210796200 0.60590851695500 0.77569083241000
0.42937420923800 -0.70394575833200 0.61105473065800
0.06272253894500 -0.41048427283900 0.47076637688300
-0.23863218020200 -0.38390993640200 -0.81368193308300
0.18981004858200 0.04923340986000 0.66872247458400
0.58008415255500 -0.51390199098800 -0.16869996574400
-0.15477192094600 -0.70450951148700 -0.29051691801200
-0.44543948339700 -0.15727731345700 0.26575931668400
-0.77765406619400 -0.35136554165800 -0.40519860833400
-0.65614079706500 -0.23534350772100 -0.58154807783800
0.55660807242200 -0.48224395436700 0.20799806904700
-0.39114493304900 -0.53887037929900 0.40261220724500
-0.41479499453800 0.34489873397000 0.19569045242600
-0.50978969004300 0.02544753568600 -0.54052541555100
0.44916035764200 -0.16324000278600 -0.68591842102800
-0.57845524706000 0.10913147391000 -0.11066718618300
0.10404838909300 -0.49832783175600 0.40834831257100
-0.28467774915500 0.44769068452800 0.12755936144900
0.57715001881700 -0.65031845224200 -0.46766259800300
0.21845807895500 -0.71174623855300 0.40579669343100
-0.59270556991300 0.00200666096600 0.24733864918900
-0.24067994770300 -0.70121607912800 -0.13288898442000
-0.41746902671100 0.35455144507000 0.14635323721900
-0.61852754796300 -0.64732072899300 -0.78072849415900
0.24512988022600 0.65611520125000 0.58347599042700
0.54031670092400 0.14148920958000 0.06468103037800
0.49621543711400 -0.48037358068300 -0.73179119318800
-0.11548183353700 -0.70461243890400 -0.36585705376100
0.55529961280200 0.05704942398700 -0.43864257025600
-0.69549699103900 -0.62790304611300 -0.50881566367700
-0.18095237752900 0.35351031667500 0.89226927506200
-0.43279660442000 0.22040885136000 0.55251808313200
0.23238464963700 -0.41625711819000 0.40791642029300
0.63302927501600 -0.07667793842100 0.29873900094500
-0.17874503661000 -0.70454414129700 0.08993969386200
0.73327222414700 -0.26192223105100 -0.13334534263900
-0.40830278333700 0.32654749796400 0.04621075093400
-0.16767081276400 -0.70615115008900 0.19772052582700
-0.62396675310700 -0.41125754338200 -0.18571966707600
-0.41653001245500 -0.68041137158900 -0.26858194142200
0.10571901013200 -0.60424889870400 -0.74796413260800
-0.54575530993100 -0.26960521386200 0.24022769874100
0.62312405407900 -0.45566718310500 -0.30714195916400
0.14219818600600 -0.54598706255500 -0.76801338629700
-0.16621012687100 0.64284714841500 0.36792582606500
0.24380219159500 -0.71056720258100 0.36361881559700
0.45551446015000 0.32012666621300 0.21527567484100
0.92064783845600 -0.68873601015400 -0.70458448528400
0.84391627943700 -0.61699728915800 -0.78354718711900
-0.69309990870300 -0.58608179350000 -0.86339285725200
0.41118871994900 -0.15339305961300 -0.69799578928900
-0.14864374891400 -0.70699981719400 0.16306488704800
-0.42879002828700 0.33912291705000 0.52655251447600
-0.78411838296800 -0.34919224072100 -0.44825241801000
-0.29963885307000 -0.51478440100800 0.42813983662200
0.05611050618300 -0.71354986045900 0.26002816253700
0.13629015906100 0.39548453592500 -0.32116359350700
0.33071054864600 -0.69015032739400 0.13302795486700
0.32057646983300 0.01059837435200 0.46618633944200
-0.72714482663200 -0.27023219856500 -0.57487080327100
-0.73902295615400 -0.45635548144200 -0.44580447957000
-0.27011236168000 0.47014292443000 0.77277025867700
0.85383615850400 -0.20003394351100 0.14602254925100
0.08387264236100 0.52426396616600 0.11530232970500
-0.83712324649200 -0.59192715929300 -0.57456478716600
-0.12817376788900 0.51721157802900 0.88553573208700
0.64259912803100 -0.49686927450700 -0.45574299241400
0.30778782052500 -0.56648633330000 0.60092092086800
-0.18417816861200 -0.69418244395600 -0.62456134201000
0.78325358261500 -0.15738410204000 -0.10524495550900
-0.39703361469900 0.25337607664500 -0.26858466349900
0.42042363461700 -0.68400339258300 -0.20192682766400
0.81511598372800 -0.00657909816600 -0.16297570382600
-0.14864221470400 0.41626641439600 0.92968423331500
-0.14157276626200 -0.70568211986100 -0.53782785891700
0.03227787003700 -0.14136995511000 -0.80070750037700
0.09520456960400 -0.70434348613200 -0.32144688410600
0.23177251656800 0.42961843836400 0.11988821844000
-0.18128853539200 -0.00389024400500 0.62785380905300
-0.03896309980400 -0.02113297485500 0.66141096682500
0.19835692141600 -0.70685073796400 -0.41284014422600
-0.52416072034800 -0.58055276833300 -0.29630872755900
-0.45255642205400 -0.24764902654600 0.23124351611600
-0.24816363789100 0.43431591061600 0.83884670665000
-0.20072012912900 -0.08432146884600 0.52418835206300
-0.12809511320900 -0.63176079501200 -0.71086578420500
-0.33646581788200 0.34740626263700 0.01689818145300
-0.35823003367700 0.51320696748400 0.33441714606000
0.65903108501400 0.06748166426400 0.28913536184600
0.03538119420300 0.58803710994400 0.80720258769700
-0.82642046845300 -0.53554579489500 -0.75178736337300
0.30753262356600 0.53875998304700 0.40226220723400
0.74747967163500 -0.22504409574100 -0.48965425795200
0.25003025867900 0.54084538307600 0.65145847591900
-0.36408028334400 -0.50632457013200 -0.80233908818700
0.78778396634100 -0.09347940436700 -0.01635622935100
0.32459664473200 -0.61186890667100 0.70010471037300
-0.60738626225200 -0.42398742525600 0.13842810324600
-0.32307942601600 -0.49528099394000 0.40123624987500
0.46199119773900 -0.52417278730800 0.32852957405300
0.07146451842500 0.51372176251700 -0.12385781036400
-0.40707696015400 -0.66792945120600 0.44615025644600
0.33977125189800 0.32907189453300 0.71340794638700
0.12417495004600 -0.21022195416000 -0.80005058414700
-0.13954690447900 0.65353682787400 0.66937227012700
0.06155176124800 -0.64846646434400 -0.71801177861400
0.66255790095900 -0.50858406369300 -0.52346140940800
-0.00689904596000 -0.71283338344800 0.20525166746900
-0.62745546668700 -0.57659797766400 -0.80945854470000
0.67433895085200 0.11841648308600 0.23659739009000
0.26733797102700 -0.38349391556000 -0.81551675200500
-0.17915413257100 -0.07314878500300 -0.70014791114900
-0.09958931009900 -0.61405413134200 -0.73706021304100
0.48834660530100 0.09771200682700 -0.11442326203600
-0.20027686107700 0.69125575241000 0.45607916540100
-0.18227618456200 0.29549405176100 0.87388691435400
0.33623734411000 0.02727973379000 -0.51713957560000
-0.47603896203800 -0.64003313019900 -0.31383881129100
-0.31607439949200 0.07243365010100 0.62124506565900
-0.37985139362000 0.31509386269700 0.01303007638200
-0.33426244950400 -0.69699232517100 -0.17102772816600
-0.82115186585600 0.01002149817900 0.00201008845100
-0.71067421802100 -0.50083131055900 -0.74290899970900
-0.14094717224400 0.63607920989800 0.70706444072900
-0.05920941571300 -0.37991158168600 0.48102499456800
0.12334680819000 0.43216641337900 0.92174824558800
0.58711740993500 -0.51064125359800 -0.22732391313300
0.84828153892400 -0.66082063050300 -0.77435613967400
0.52217990484000 0.11344653142100 -0.21325313237200
0.58759230628000 0.09224432173600 -0.37247843761500
-0.75583546915700 0.13177835092000 -0.19593264645500
0.07404822428000 -0.70532333484600 -0.57783409131500
0.19468686541500 0.08518436480700 0.70614271153100
0.36235495815600 -0.70843225610600 -0.20052945174100
0.88205532986500 -0.69113793930500 -0.71174784397600
-0.41664040590200 0.33193360728500 0.23735561709700
0.88762974004000 -0.67814576532500 -0.76919064207200
-0.06681667424800 -0.23210849525000 0.53605984445700
-0.57153137183900 -0.44880139344700 0.03865569762200
-0.15640298904000 0.17775226559300 -0.54614587477700
-0.38548512289600 0.29393399684200 -0.19216381275700
-0.33234965607100 0.53483342924300 0.31466322248600
0.29699447939600 -0.14005765756100 -0.68989617417500
0.47486682109900 -0.41601263596600 -0.70505411926200
0.21209071861700 0.34596721173600 0.86547197240600
0.13457270904600 -0.11852955924800 -0.75273758323500
-0.42267759137800 0.14877870054700 0.40855758517500
-0.74964980018700 -0.31847409022600 -0.31749215553500
-0.49024502535100 -0.41097643781600 0.29538672182700
0.07599429599900 -0.14879782389300 0.55060698526300
-0.10966831287800 0.42120378076300 0.94619955467700
-0.50754197058200 -0.56496777267500 -0.15242898658600
-0.65823989591700 -0.69838973043900 -0.64393502956700
0.58967994642800 -0.66648985444700 -0.72277595106300
0.32942644920100 0.25657438074100 0.72312745754200
0.09212738981600 -0.18981312751900 -0.81276025927200
-0.41555623047300 0.25340879475100 -0.19699871223100
-0.14833217167200 0.48202864668100 0.90027304158100
-0.37894504609000 0.50092744961100 0.41039226568000
-0.42552646035000 -0.56444115987400 0.10938552797300
0.51951899899100 -0.64623697462600 -0.43349439497100
0.23290913419400 -0.46956591735100 -0.79900142052700
-0.60229255614700 -0.44545076812700 -0.18648198300800
-0.09709796806500 -0.70956405125500 0.44788958754000
-0.01669517068700 -0.68914380326800 -0.65853448947500
-0.57056839653600 -0.32145884519900 -0.65148690688900
-0.45047678387800 -0.13712179681000 -0.69698026592400
0.41225075669400 0.23186518156100 -0.02306943547400
-0.84625388552600 -0.12705039867900 0.03763264182200
0.23124781236600 -0.71077706260800 -0.04617817785600
-0.05336369396000 0.07264684086100 -0.66279872062900
-0.43550779757900 -0.48681032774000 -0.77014139457100
-0.02077880038500 -0.53443463516800 0.39272541275900
-0.66293783079600 -0.36754190916400 0.15090100505900
-0.80627629502900 -0.20298306650000 -0.45042046739500
-0.04025860517000 0.20030370555500 -0.57347414447500
-0.36615962625600 -0.65463260302800 0.02272046918700
0.41850731664600 -0.38636442002600 -0.73811177723200
0.36737755142900 -0.66654882630200 0.11880635283900
-0.09783473355200 0.51933985021700 -0.14524705671600
0.81076924443900 -0.19361799703600 0.21398313583600
0.45516325464500 0.09615580936800 -0.28918612440200
0.35708504710200 0.36065744917200 0.65192432254500
-0.06062331609800 -0.62322381492100 0.49746229083900
-0.68780591571300 0.09069038623100 -0.05523933301700
-0.78421249182900 -0.00418259654200 0.09561936562100
-0.27280481790100 0.47569642745600 0.19517896128400
-0.54361258293200 0.12174780327300 -0.10374284993800
-0.37361463718400 0.46759854195900 0.45879803462100
-0.36615591332200 -0.69099240875100 0.37466567464800
-0.87255247601700 -0.59606808020500 -0.60077285142500
-0.19716576119400 -0.70561184464600 -0.36008843324800
-0.27997520283100 -0.09773915828700 -0.64542850547900
-0.76476346119600 0.02465652947600 0.11236200784500
0.27013364361800 -0.70992134212100 0.50385679572700
0.28882924498200 -0.43308604097500 0.37029883357500
0.28837644215000 -0.47634924264300 0.41884275137300
-0.27449275905200 0.57313044215800 0.63676430670500
0.07606348300400 0.25766605084600 0.90242853924600
0.37848324111300 -0.68732841517600 0.72211729319600
0.33891748918700 0.43242360657500 0.57266019451700
-0.79129211445700 0.08158032573100 -0.22943014879800
-0.14140273551400 -0.69190625786800 -0.62716748221300
0.20369903571300 -0.67366512285000 0.59663559236600
-0.60334475623800 0.20512502188700 0.04731766659200
0.13908782218000 -0.66412250322400 -0.66561037703400
-0.05839955498000 0.53700560581300 0.00431879343100
-0.09160695392000 -0.53679241084700 0.40481052538800
-0.35866778065400 -0.69906406383500 -0.41681199319600
-0.69596708393800 0.04300063718300 -0.38568286708700
0.31327312690200 0.12522861293500 -0.46030524381000
-0.78635318934000 -0.09581207069500 0.08412610890200
-0.20691103482600 -0.70622928755700 0.36525754282500
0.27840102682500 -0.34012030602300 0.42021793382500
0.67107970590800 -0.33158460043400 0.28068004676500
-0.36118315935500 0.37929392073300 0.71308946489700
-0.23651658322800 0.16725791583100 0.77263950824500
0.31942989105700 -0.69563867525000 0.26805595600700
0.73087345976800 -0.24363041470300 -0.51946765051400
-0.77887215482500 -0.26455469671500 -0.07068683154300
0.04887169744700 0.50617787144300 -0.20368782970600
0.81385249937300 -0.68072620294400 -0.75684835507800
-0.03505231247200 -0.56995011460700 0.44532729813400
0.17780355637900 -0.71186553639100 0.33207598188100
0.75345271443200 -0.33552791166700 0.10951602851300
-0.42020632077900 0.34505046947300 0.35270071364700
0.23786378091200 -0.71029059007400 0.28967085099300
-0.33648702580300 0.28009480945400 -0.30698019009600
-0.29998598457400 0.15319207142600 -0.47218625055300
0.35581625580900 -0.70917030410900 -0.15637967961700
-0.25241136040700 -0.45127080923100 0.36608299986200
-0.62717915755700 -0.58939162883100 -0.42682075301100
-0.54625597716700 -0.18325013861400 0.17329069758800
-0.18342928758800 0.66183539217200 0.65535556212400
-0.37738794070400 -0.67108749284200 0.34099355735400
0.24545185079800 0.29532861623300 0.82172089580200
-0.51287112181200 0.09771398423400 -0.23120210535300
0.44091068666400 -0.01645709202400 -0.56197455991300
-0.15002468640900 0.05787111831300 0.74244641500700
-0.19354908235900 -0.70473930303000 -0.31283137192800
0.24844862505600 0.40130862899500 0.82053147972100
-0.59547912645600 -0.11721908145800 0.17206655374300
-0.73126946065500 -0.50565718134800 -0.79641780291100
-0.27914485230500 -0.41451425925300 -0.82557914839200
-0.62244202439100 0.20440610063600 0.08130936139800
0.37960686061600 0.22437589958800 0.60292068274400
0.78351242370000 -0.25304850817800 -0.24708968121700
-0.52040581563500 -0.64852103899100 -0.70281286586000
0.45768425297500 -0.23168736918700 -0.70944484095400
-0.31446308303200 -0.70039654539700 -0.53286708417100
0.43240384642800 -0.59103874714200 0.68727679707500
0.43512807046100 0.18682464909600 -0.12728506628300
-0.22010980100000 0.10443952864200 0.73271556023000
0.32079812679500 -0.54598109067200 0.54962467708400
0.69994184698600 -0.37786441282600 0.13193443986300
0.09795445044800 0.52447056767300 0.87724855478000
0.70125042198700 -0.53414101483900 -0.75601791360900
0.21369570443000 0.25459541013200 -0.40809657594900
0.32118950712200 -0.53043646394100 -0.76244479917200
-0.14998047194000 -0.70423422075700 -0.24621142542300
-0.05305997526500 0.33489187023400 -0.45905702974800
-0.22924216544400 -0.70003753783400 0.16414999023600
-0.04074630673500 0.53668348951200 -0.10854212473900
-0.34278497658700 -0.58497184758000 0.69144699037900
0.54452449821000 0.09586729235700 -0.37915335618100
0.13080881981700 0.30159666223100 -0.42611468094800
-0.25061155650000 0.69010106519500 0.44413670320100
-0.43077744436600 -0.27762904530700 0.25260200093700
0.41226246949700 -0.70024250877900 0.69296914384900
0.78806557620000 -0.22250682123800 0.23074231534200
0.35435446017200 -0.66946220773500 0.27584225614800
-0.66064039492200 -0.41966504514000 -0.31243451649800
-0.07133067463300 -0.70470042284300 -0.22087461655900
-0.14127227083100 0.66288325755200 0.40020997611900
0.19242253445400 0.00510564551300 0.60799110486500
-0.71262561691100 -0.35509948974400 -0.59664779143300
0.46594335577200 0.30363850632600 0.27729645474900
0.56853454920600 0.10260540911900 0.04215581802400
0.54471870013500 -0.19668155111600 -0.61030124620200
0.16561525161800 -0.71303084269100 0.38931706524800
-0.61273081648200 -0.38852338804200 0.20290341685600
-0.18974631194000 0.07903496582400 -0.59763384950300
0.61486532026200 -0.30822442140200 0.32334992932400
0.42995949081700 -0.23195503764100 0.30345477905800
-0.30818241319900 0.02912672373500 0.56198293657500
-0.37489721854400 0.43847739033000 0.53485373164200
-0.44916236189100 0.20185634091700 0.31139302903900
-0.31520017673500 0.36479054378700 -0.07573632518200
-0.68964884337500 -0.52168740744100 -0.43109997732200
0.46103805067800 -0.04408911667500 -0.58563562519100
0.21363615797300 -0.58444421698000 -0.74831513809900
-0.96984106302800 -0.56631322641800 -0.88196931692400
0.70560862719100 -0.35107652305900 -0.28534967496800
0.52234120046400 -0.16940068409500 -0.62681334440000
0.68424904724900 -0.56215828337500 -0.46397027111000
0.00087553867500 -0.02743374026100 -0.73154126400500
-0.27405355909200 -0.70318644802300 0.35184668491800
0.56377014990000 -0.52575780044100 -0.09941708830900
0.42350046796100 0.21662564347800 0.01309924455800
0.56683779661000 -0.68493697400300 -0.48518580703300
-0.08543769032600 0.57991445993900 0.26320843029500
0.71536838878600 -0.69883760012100 -0.62736598629800
0.60465742376800 -0.37986692151700 0.30800943652300
0.74831518968000 -0.69648971778700 -0.70916661411100
-0.34665146702100 -0.43697345768800 -0.81962767829000
0.23841395683400 -0.70986342973100 0.13877104316500
-0.41237470523900 -0.67207218737000 0.62303941579800
-0.76081650653900 -0.28077973799700 -0.29171946292100
-0.15682791457200 0.55391730124900 0.26367386487400
-0.53534612988600 -0.47079911281700 0.04297585965300
-0.36476819777800 -0.30392836023700 -0.79070580396000
-0.92395629211600 -0.56423410295100 -0.74076291032700
0.12140708414400 -0.70426729211800 -0.42577969242200
0.60597709580400 -0.67834038360400 -0.47977061271400
-0.59919443836200 -0.33138792442200 0.24345769673300
-0.25366072487700 0.41962788816000 0.00617057039700
0.03081369335900 -0.37370795289900 0.49331792581600
-0.26345555927800 -0.57058089577500 0.66329383604200
0.12941887426900 -0.68821092004600 -0.62747456930100
-0.70995576560700 -0.03344880197600 0.15781719210000
-0.04038487356000 -0.70004843175000 0.48213112319000
0.16735018159700 0.09723208809100 -0.58222702658600
-0.32126183766600 0.02446404635200 0.52541403302200
0.47602477354500 -0.48599537851200 0.34895332203800
-0.65582397077600 -0.69547325875200 -0.68671403547800
0.20571413578800 -0.49682794637300 -0.78561822408100
-0.73438644177800 -0.54936444771900 -0.51000752449900
-0.20840670047900 -0.70323702759200 -0.51969139685800
0.03077810554500 0.23585797764300 -0.53578836411300
0.63696060322100 -0.38125900642700 -0.61835413139500
-0.20218028679200 0.43260033544700 0.88655529519900
-0.06112998205900 0.00506813267400 -0.70533307324700
-0.35675558205500 -0.04088941077600 -0.57270207001100
-0.40658471214600 -0.63305148020400 0.41773252982000
0.55097904192900 -0.39193890702100 -0.68083059075600
-0.53395966620900 -0.31973787204900 0.26427329848900
0.69748783881000 -0.34350643011700 0.24419781468800
-0.03860305641300 0.08115579561900 0.81684451315000
-0.51154943400900 -0.36111770731800 -0.72278243124500
0.16119838344400 0.65039638679100 0.66657009882500
-0.94114980082900 -0.62618800428200 -0.74257081496200
0.42858246797300 -0.50916271936200 0.40079031523400
1.00000000000000 -0.63808350750100 -0.68854461874500
-0.71958756615200 0.11454409218100 0.04911282189500
-0.36253679345100 -0.69633862669600 0.51539546399500
-0.23331646638400 -0.70499572551500 -0.38499723333600
0.31281235484900 0.10893813203600 0.58960918034200
0.78088559258800 -0.59024386884900 -0.50967245214100
-0.81942300791700 -0.02709861041300 -0.32202622455200
-0.11479884975000 0.66477640391600 0.63890496194900
0.86501852245700 -0.54105598166300 -0.72063751630800
0.83499897759400 -0.20773224489100 0.18289883205000
-0.05686238972400 -0.68457726674000 -0.66301243210700
-0.23329116072400 -0.66948444377100 -0.67915255386600
-0.23460808474300 0.31953740548100 -0.34629730256600
0.02449585933500 0.50328886390600 -0.23628039643700
0.77503943775500 -0.52887633981300 -0.66801482554400
0.11440870506400 -0.27286989605000 -0.82356124210800
0.72793379754400 0.08151422437400 -0.14916517116000
-0.45535239752100 -0.53831753047700 0.10160830819900
-0.01511329578500 0.54129632508500 0.01236170325100
-0.58653763640900 0.08980078621400 -0.43397836417100
-0.76924362001000 -0.68274236749200 -0.56643065301600
-0.72515184881500 -0.24923569137500 0.17106310945700
-0.36013474471200 -0.11977279869500 -0.66998164746500
-0.07507081214500 -0.05721985516500 -0.73903298310800
-0.75131783015400 -0.68877055643200 -0.76204244961000
0.42042775549200 -0.70403460122000 -0.53838081470700
-0.03377034397500 0.48073101737800 -0.28873116047400
0.51437635289300 0.24621666315300 0.31794135831100
0.57953299218600 0.14775980858900 0.32963943714200
0.94341137886500 -0.56921822197500 -0.72237447717800
-0.72033974345400 -0.33137927142600 0.10476162030400
-0.01832027581200 0.12371250115800 0.85252833388300
-0.87014900073700 -0.07410561224600 -0.06779718450200
0.21747426591200 0.33118954022600 -0.30129836695700
-0.41972203257700 -0.55053122032300 0.34077491182300
-0.69185324697900 -0.28174332085400 -0.59145646044300
0.32572432261100 0.31345305119500 -0.19398987942800
0.71208508243600 -0.70004119297600 -0.51659992271100
-0.18594696760500 -0.22350872390300 -0.75554046214900
0.79158943309600 -0.28742255923300 0.17261164037000
-0.29757433615200 0.44913657798000 0.16929584547500
0.18994026858000 0.68850678470100 0.50812524961500
0.13670522400100 0.04515028766000 0.71596468026400
-0.21650924529600 -0.03695971523600 0.55447444241500
0.13067777211800 0.62016197343200 0.36082008139600
0.12482804707600 0.47373343435000 -0.17950764510100
-0.28567939982400 -0.69829721257800 -0.05936393779400
0.21070324595400 0.30790156263400 0.84902623998000
0.11027560584200 0.56951284668200 0.82269278691300
0.71908037316300 0.12788193166300 -0.07766361078500
0.26884785451800 -0.65630064221000 -0.67651548727200
0.26613669681500 0.45572828220200 0.27426689838500
-0.70245987615100 0.12887211281100 -0.29335610256800
0.06844617918600 0.29397709215200 0.92310586985400
0.80945823281000 -0.64006455136800 -0.77386475922900
-0.03134699947700 -0.05557863391800 -0.74705838391800
-0.55377760846700 0.24150793671900 0.20667322688800
0.57233703227300 -0.22219564142000 -0.58923979607500
0.43780471043200 -0.54918123205500 0.53143375355700
-0.69546748387800 -0.17079788874800 0.15221217133100
0.73518837886100 -0.23001752276600 0.26939477793100
0.15977355849500 -0.70530726630000 -0.40446352879600
0.68606512602700 0.08487729745100 0.25449767106700
-0.03398935237600 -0.51327516613600 -0.82953669168600
-0.35480186001600 -0.68450469441600 -0.64405651564300
-0.26457696229800 -0.68064697927000 0.70992556946300
0.49208248241800 -0.10572475375600 -0.62162089094700
0.29976537095200 -0.39469263671300 0.37108943324600
0.14521986158800 0.44669706668100 -0.21922549149400
0.33904192049000 -0.55095530653600 0.58652708793500
-0.42424507967700 0.34427814481600 0.10298613680900
-0.37069728741600 0.07733708285300 0.52102730039700
0.38604018449500 -0.32436303969800 0.33143786699000
0.58577989286100 -0.46146622211100 0.22602238490500
-0.05876674960700 -0.51814378669200 0.38612825627100
0.07709991482000 0.08688500651300 -0.64230519040400
-0.69307911353000 -0.50709705013400 -0.81486144800800
-0.54585716967000 -0.29786568220800 -0.68502627100400
-0.70252298580800 -0.39460361734800 -0.60520572564700
-0.16899151902500 0.53703649314300 0.23005461965200
0.07944991227800 0.68870050867500 0.54870354883100
-0.05499086182600 0.30094617359900 -0.48780269091600
0.69596454895500 -0.10296046267000 0.26843179161000
-0.97996894881000 -0.66095804510600 -0.79954618584800
0.67256815271800 -0.36324914958700 -0.10674258975400
-0.55794210572200 -0.21230740737300 0.19419140305700
0.82965596678800 -0.16787657154700 -0.00373653329800
-0.55423951720700 0.26707665855900 0.11956422148400
-0.43837217742200 -0.66411884177100 0.52018407614400
-0.29057329128500 0.50831679947400 0.67633170031100
0.20248851637500 0.49762627548800 0.24682647106800
0.09038705865000 0.50994978848500 -0.01932189853700
-0.17269862483800 -0.18286385489500 -0.75151435362700
0.25162086129400 -0.53150170572200 0.50268437254400
0.03638414922100 -0.02291349686700 0.65810842455300
-0.23450637544000 -0.52262048797400 0.46840230361000
-0.09007638002000 0.31606120095500 -0.46415040132600
0.46166187902200 0.23899053964700 0.09450370312000
-0.24427779865700 -0.55327007704600 0.58808013594600
-0.39874925787500 -0.06486277723400 0.34567281248300
0.31569718942900 -0.57619223427000 0.63738302862600
-0.55720806741900 0.11606899707400 -0.30369172914800
0.34736988498100 -0.70965595595300 -0.31368548078200
0.77348793567300 -0.19403538622700 -0.04114966207600
0.75796993217200 0.08668954310600 -0.03408690454700
0.07963718531700 0.34745313778600 -0.41753980872200
0.57642491345000 -0.49459005014600 -0.72975872322100
-0.30903303908200 0.54803153387700 0.63218181300500
-0.72258304487400 -0.33169212797900 -0.29335704795400
0.03087354549700 -0.66934948953500 0.50579968875200
-0.54934912965100 -0.53314964151800 -0.23016928350900
-0.32269029502300 0.21344030635500 0.71596308335500
0.96202398282600 -0.62641371741600 -0.58307182391000
0.41875533202200 0.05050728083500 -0.44898315863200
0.55808546025700 0.24663373043800 0.24444139139000
-0.16456192475700 -0.70526101943800 -0.41641274891300
-0.53393629999600 -0.14889831718600 0.16236367452100
0.42444808803800 -0.65462469490300 0.49321462471200
0.69574807363400 -0.57842272165600 -0.76579886439600
-0.72801793804300 -0.38874617237600 -0.35729086277500
0.30755432706600 0.50484122654000 0.37484794562700
0.30418776520800 -0.70473520909800 0.31246624474900
-0.56827410169700 0.07159839456800 -0.47235004890900
0.24137650501600 0.11068286461600 -0.52968449706900
0.28092474142300 -0.56437462042900 -0.75529814612800
-0.03778989649600 -0.70396889087800 -0.28602262609200
-0.09997750361900 0.01363175672700 0.70844159958600
-0.79238618102700 -0.52434186866400 -0.82191859291900
-0.33800794002600 0.44697116203300 0.66505386826100
0.60798327556400 0.13706691608200 0.09914492479200
-0.60913622655200 0.11616748441500 -0.36580789913100
-0.22912129132900 -0.70376118453500 -0.28917158736200
-0.30211087004200 0.34713906392100 0.79304052131000
-0.31917035437900 -0.21318975008800 -0.74463953308000
0.17203814821300 -0.51825268579100 -0.77537087670400
-0.71499019647900 -0.42347990305000 -0.37470506073000
-0.28112403825300 -0.57651845602200 -0.78144213701700
0.35139042675600 -0.02340887819800 -0.56770891478900
0.44682485866400 -0.16844281631700 0.29221817929200
-0.23449936212000 -0.56408713333600 0.63139557498700
0.34720068614000 0.09642725645900 0.50010074421200
0.06884002438600 -0.65513153914400 0.51089299132200
-0.17239240461200 -0.67763510839300 -0.65914977619800
0.00737507438400 0.57352073918300 0.19519302858600
-0.27723301397200 -0.22173972159000 -0.73680784893300
-0.14868229748100 0.68546497919200 0.55889637114000
-0.20574150499000 0.63424969310700 0.35252182528200
0.59618044134400 -0.51748002901200 -0.40353910346100
0.14115892915200 -0.68130014490700 0.54111158692900
-0.29009967044300 0.48789560189500 0.71450066353700
-0.76696768762200 -0.32727753978800 -0.35197942627800
0.89410474921300 -0.62531107286900 -0.54844877032900
0.79916407428400 -0.05440338399500 -0.06751409862400
-0.11591480300800 0.69250048089700 0.48433682373200
0.63574460777900 0.12335661149300 -0.25745665454800
0.58808291691500 -0.21046722602500 0.29545768742600
0.41251933437700 -0.40957421257500 0.37823291140100
-0.39054795449100 -0.69270100044800 -0.62321850638000
0.48845466488100 -0.67536062898800 -0.43358025347000
0.78373862349900 -0.26932276298300 0.21039647846900
0.14079504662900 -0.58047662940500 -0.74605774804400
0.13986635939800 0.22296320549800 -0.49835434150700
0.97843892046800 -0.67311834656900 -0.68114399166300
0.65278092051100 -0.40414269150400 -0.24815756454900
-0.52523352401100 -0.36116774774000 0.27771320413500
0.18003417687500 0.42179934459900 -0.20218358427300
0.16368847731800 -0.70576024410700 -0.48712384633200
0.41872357853100 0.00509638225900 -0.53195203667100
-0.41340965773100 0.25953965260300 -0.08617074668600
-0.42053573775100 -0.58865595706200 0.29972290633200
-0.03666863519800 0.44347548951900 0.95544654421700
-0.28174446955900 0.42724803965300 0.79379820776800
-0.79195582786700 -0.18963075417900 -0.24078309837100
0.57233215290600 -0.50615155890100 -0.05968447701700
-0.86436780186100 -0.53167723220500 -0.81108754063800
-0.04463615316500 0.53887500306400 0.04404438008500
-0.33112397350900 0.42957741430800 0.22683498193700
-0.13998524609000 0.35441790415400 -0.40400414632500
-0.70240889475100 -0.27070759089000 -0.17154219758800
-0.23222533011800 -0.05669557002100 0.52154505968700
-0.24198832088600 -0.70290256629500 -0.48822538494200
-0.46597906417600 0.03690165271000 -0.51157969425300
-0.43330128726500 -0.60434435257900 0.59923100831900
0.77934273108200 -0.52922222115300 -0.75285841818800
-0.36029201000300 -0.18914561443900 -0.73644161992300
-0.05921289147400 0.57794209510800 0.23135661201000
0.50158334774200 0.14618481930500 0.05078699902100
-0.39745455617200 -0.59131501801200 0.12013411929300
-0.77666292213300 -0.51742345512500 -0.78478056998000
-0.56348053576500 -0.34938502181400 0.26099206369500
0.19534203850700 0.46386638438600 0.13669402400400
0.48042082741600 0.09917502188000 -0.32141616534200
-0.20184626578700 0.50120793350000 0.85109357913200
0.05813752899100 -0.39979621873400 -0.85522514454500
0.07340575404700 0.67810399780000 0.60913294830100
0.14285059185000 -0.52255138540100 0.41528600960800
-0.14325256401900 -0.60421599791100 -0.73482513103500
-0.34689099946800 -0.63924730703400 0.19671327035200
0.34325498224800 -0.68740822336800 0.09409731411200
0.25118403566500 -0.70871153680500 -0.22620851334500
0.35816480879700 0.12768003274500 0.52581425724400
0.05311303533100 0.48079823128300 0.91917794038800
-0.53037248171400 -0.23649199579700 0.21198221604000
-0.34648705440000 0.24714136752500 0.72942374030500
-0.40940151453600 -0.69909274620000 -0.47743026612000
-0.59016871997700 -0.66408733647000 -0.74802002342300
-0.57746786851500 0.14817967266900 0.25349196803100
0.04864545798500 0.53364821676700 0.09279195937100
-0.03162946417800 0.70828119997100 0.55743031210400
-0.09532885638000 0.16165149396000 0.86544090599500
0.14577406053100 0.36506613959700 -0.34829897754800
0.42221934419100 -0.58978927149700 0.41613368996300
-0.21464436744600 -0.70259945365200 -0.02419987078600
0.69416427611100 -0.51083659801900 -0.66671681874800
0.10590298138300 0.22639000289700 -0.51429980682600
0.26295811320300 0.54099649570000 0.33292749055000
0.62978322510300 -0.27072710344700 0.31484546742500
0.32829386931900 0.33623178958200 -0.05457565286000
-0.13265244587700 0.30553764330300 -0.45318421622900
0.30870433472900 0.59501964863600 0.51751525045100
0.84074508493500 -0.69624177011800 -0.60713617842600
0.04265957621600 -0.46948295630400 0.43294980873100
-0.42354165467300 0.21680625384800 -0.26999529094200
-0.22338857052100 -0.61416977493800 -0.74804869477000
-0.40881881170800 -0.59575118220300 0.07989510455300
-0.81729073233900 -0.69261661917100 -0.66167755137600
-0.12559676346400 -0.01488636623900 -0.69193810380400
0.27606656307400 0.59238883777100 0.60637502351900
-0.56658056154900 -0.57663806685100 -0.37105204239800
0.02725398483400 -0.25033613766900 -0.84974287323600
0.64639469973900 0.14456262014600 -0.10602126833200
0.80894402459900 -0.13863766240000 -0.13077293563700
-0.22854506888300 0.03255021323600 -0.60170585674000
0.01452754076100 0.53928344619900 -0.02244985330200
0.36043810033600 -0.60356974763900 -0.69987938164200
-0.13143780626500 0.54827323653500 0.20686039115600
-0.27424851710500 0.38723518104400 -0.13603839739900
-0.12549204242900 -0.38997028056400 -0.81551184990300
-0.49548276425600 -0.52655573072900 -0.00356274825200
0.69944318660400 -0.30157223144600 -0.07582114514900
0.18487624431100 -0.60482490340800 0.55071369031500
-0.56454203707000 -0.36672654528500 -0.65769413403000
-0.17494250727000 -0.27202702895800 -0.77643102868800
-0.27553982467500 0.68464748736900 0.47432001336800
-0.37078290052900 -0.35401363637800 -0.80447053967100
0.06690597215100 0.01535708702400 0.71541110289700
-0.14148000431700 -0.15594429204600 -0.75835331333100
0.04848983968100 0.03248288034400 0.75191848599000
-0.17570814482100 0.34571716987600 -0.38447641053200
-0.19641805361500 -0.40540993837100 0.41272695328300
-0.27578052295500 0.07073479099600 -0.55319354910700
-0.15045019605900 0.14803781618800 -0.57157006423100
0.63040297403700 -0.28714671974000 -0.60943630122200
0.15709059178400 -0.63619763686800 0.55652654803300
-0.29589253074100 0.09045292664100 -0.52385672391700
-0.16837533369000 0.57929708363200 0.29526788651600
-0.11889081033700 0.21162217595400 0.87830025588600
0.03551378592800 0.26916425133300 0.91793370718000
0.45286463210600 0.16520254268000 -0.05101875685300
0.18604036134300 0.49465819471300 0.20684465953900
-0.84112990695800 -0.02932397435000 -0.08034620981800
0.04298381835700 -0.70680139353600 -0.15088980406100
0.70724062885100 0.06800192208000 0.13728294980900
0.43421762819700 -0.66958678406600 -0.16605935097600
-0.57828817115400 -0.41494263640900 0.21942002604200
0.77883513425900 -0.29220090034300 0.05878493437800
-0.91012747822700 -0.64527126292300 -0.66371888066200
-0.00428694439000 -0.03642051305500 0.63865589852700
0.12110320990400 -0.36975503387100 -0.82807255206600
-0.41468485749300 -0.58788861643500 0.18768731830000
0.39398685340300 -0.70575528812100 -0.50216403229900
0.32576362666500 -0.15305666367700 -0.71754304845700
0.36510573040100 -0.67699110685400 0.35702034865000
-0.35970711843600 -0.08940816774100 -0.63371712755300
0.38768180967500 -0.68174419789200 -0.62542306973500
0.10096221837900 0.62857425820400 0.72135754489900
0.69161690023700 0.05590625697200 0.04783864754400
0.34118598919800 -0.68605379342200 0.70706896143200
-0.21911477924600 -0.58065478692200 0.66554143711700
-0.66168057652900 0.08717410093100 0.20559684590500
0.01009678657000 -0.62145093181100 -0.76250793016200
0.42197842777000 -0.31920827806400 0.31500231746300
0.22816218390400 0.44008057130800 0.81393013605400
-0.32515940662900 -0.66058504465700 0.12362520139400
-0.50098162803500 -0.67138047927500 -0.67373461132900
0.02223051408100 -0.70745954961400 -0.53496670273900
0.36393420032200 -0.08133608879200 0.41026125023100
0.34051911121600 -0.70720890350500 0.56403802688100
-0.18226632917700 0.25112659080900 -0.46694007549300
0.25223003160800 -0.71011813491700 0.54327901253400
0.19368873908400 0.42764416824000 -0.04983979339500
0.28826247108100 -0.00988802346700 0.48944318612100
0.72908833282100 0.04021236902500 0.12115003197000
0.10507870149500 0.67995330678900 0.58348373870100
-0.26869572289300 -0.69811541674500 0.01784279170100
-0.06374022260400 0.68906009554900 0.40733971318500
-0.51947581984900 -0.69944505944600 -0.54493443479200
-0.48849314604200 -0.57613227686700 -0.11935761557000
0.06702976765500 0.17358160575500 -0.57765247927100
-0.74550835525200 -0.00352197158400 0.13232633710300
0.43562837843300 -0.26351422054500 -0.73184539044100
0.18097771243400 -0.07560328355000 -0.70087811142200
0.46319460480300 0.12605151555900 -0.12539384514300
-0.49853086846200 0.08914827410300 -0.40158831483100
-0.56365896450800 0.13704724277200 -0.07165910866100
0.51959359840000 -0.58748344944700 -0.17474304768400
0.92952285466100 -0.59853070401900 -0.56906112765300
-0.37449042970700 0.11752367092100 0.60231272313300
-0.64832280513100 -0.39902895172300 0.02223991264800
0.74797197793500 0.09674986012600 -0.11431902806600
0.20814475331400 0.28377348329500 -0.37838611190600
0.45341290063200 0.27172937268800 0.11933043466400
-0.24890776514500 -0.30875710644300 -0.78799168740800
0.09732348188600 -0.71287148541300 0.24517263209700
-0.95720495879500 -0.61784735646300 -0.94051693228200
0.14169509576300 -0.48174501624800 0.40959792993900
-0.19358667392100 -0.15272980722800 -0.72695142766800
-0.74961980175400 -0.65536267019200 -0.54588574026000
-0.50060312594100 0.26509920152800 0.02902692403200
0.30107726857300 0.35824597442300 0.00027870214000
-0.73783762138500 0.09238754706800 0.08401592268000
-0.82696739507100 -0.52819615051600 -0.87524211741500
0.32552211721100 -0.43063568153200 0.36540653201300
0.54589359730500 0.01300838520200 -0.49330566304900
-0.43501145864400 0.31016587366300 0.37670585072200
-0.27864921497200 0.53923438802000 0.65897545951600
0.19346117423900 -0.19491059974100 0.51810485842900
0.65932978722700 -0.48008811156100 -0.48759134134900
-0.90185216105400 -0.68100639757900 -0.77617120235500
0.57979332761800 0.12857191675100 0.07107791280000
0.41728502481100 -0.60078843340700 0.72508121623900
-0.76756061231000 0.04121762956500 -0.11513836578900
-0.05493181585400 -0.71302125632900 0.41148706670400
-0.27461839965500 0.31648428379200 0.80912262090500
-0.44717253662700 -0.02669114952100 0.28485711887600
0.15303260958300 0.02863181053900 0.67804182291300
0.50483307974000 0.02215254748200 -0.50018053577800
-0.69973054479400 -0.69682538297600 -0.62524337921000
-0.19821315753800 -0.53858574118300 0.47971824774000
0.80551411811500 -0.23896237950200 0.01223137498200
0.39298093102300 -0.41138927665800 -0.75274622270900
-0.17470002929500 0.68321922662100 0.59578501676300
-0.21806904892100 0.07425870287900 0.70207425917900
0.58343422751000 0.21289467577400 0.16639002592400
-0.31660901336400 -0.70155875353000 -0.40667299525400
0.17342801033000 0.55414842658700 0.78602924546800
-0.20125666071400 -0.70327357231000 0.05012445114200
-0.21311351270500 0.48891860411100 0.09222249664500
-0.46055730003500 -0.69847836490000 -0.60848298669800
0.44433857197200 -0.70098440683100 -0.61240501248700
0.73897465796900 -0.54542261851400 -0.76603413254300
0.35267470007500 0.31023166212800 -0.03079881007500
0.24804146914200 -0.60622912749000 0.62130925501200
0.36127887073400 0.32276565082000 0.66986336732700
-0.27786911760300 -0.53177906880800 0.46836006013800
0.20790817260400 -0.30396848037300 0.48380762306500
0.15628890469300 -0.70949914758000 -0.10068455552200
0.33215710834500 0.33122715772900 -0.00746441725700
0.92218966483500 -0.68299676168900 -0.74677638595000
0.28569841459900 0.61237643078000 0.48835137279100
-0.74760890568500 -0.41930229720000 -0.55199417407900
-0.24749201345100 -0.07383785375100 -0.65782604097900
0.30566869891400 0.59944885309200 0.56166452128800
-0.32495558469000 0.32708206826800 -0.23389990196400
-0.95252558487900 -0.67541426696200 -0.83052231497300
0.71870935022100 0.04506545948000 -0.23116741084100
0.71325003958800 0.12114963865200 -0.11860627618400
-0.35831218865700 0.55084021771200 0.36443795340600
-0.18948806569000 -0.04066795503000 -0.67574224767700
0.29698724923600 0.58898091582900 0.43614217870300
-0.35286428895200 0.32997648159800 -0.01592654764600
-0.49747191255700 0.12768333883900 0.29805968652300
0.65197556325300 -0.00820844816000 -0.38800929120600
-0.54878623574600 -0.47624715414400 -0.03796465867800
0.66121041802800 -0.16351806336800 -0.51998010316700
-0.78546554780000 -0.05690440103100 0.09408227758700
-0.38848344548600 -0.63383518374000 0.64506907515100
0.38791547861000 -0.62053513904000 0.73396126645300
-0.40370585646000 0.27958091844100 -0.00764412230500
0.06864810955400 -0.26776537585500 0.53473758525600
0.62177161866600 -0.45433734860200 -0.18606578608900
0.34999360119900 0.30287529428600 -0.16135537941200
-0.68855297978100 -0.62402903476200 -0.85154627890200
-0.44910737299400 -0.56213686552400 0.18337815184500
-0.64937634182100 0.11127053755400 -0.35757672060800
0.15516931071500 -0.58097091261100 0.48893784153700
0.83173204927700 -0.68647849850800 -0.52876219717400
0.55374059551300 -0.02216973869300 -0.51672499372000
-0.68142317731300 -0.32974815916300 -0.07508170896500
0.12765776716100 0.53939342369300 0.84846275614800
0.15408138869900 -0.01589704218800 0.61173496212100
-0.24956415514900 -0.11176485711600 -0.67089201250800
0.18948715025200 -0.71103110695600 0.48877748849400
-0.04699328102500 0.56989104019100 0.19251701359800
0.48876012170800 0.25566639413500 0.12288797728600
-0.85721474786000 -0.65786606205900 -0.56435828195800
-0.10409459659300 -0.46915334733100 -0.80877290183500
-0.41563662488600 0.38647695353500 0.45845928288300
0.81708201991500 -0.09942755886000 -0.12022178583200
0.81450060095400 -0.27316725184800 0.14301645354800
0.44669106865700 -0.70298426045100 -0.57188116292200
-0.57188011557600 0.23178621699400 0.04685927127300
-0.18467632370100 -0.59854878472700 0.57995251172500
0.48660578256300 -0.25400188229600 -0.68865601176300
-0.64375052207300 0.07526038910300 -0.41772386080000
-0.47797511086700 -0.13546199847600 0.21253343400000
0.45809805883600 -0.69992591886100 0.67388246323000
0.70795021132900 -0.39042402457500 -0.48048186742000
-0.00523466783000 0.06699230189000 0.80427068556500
-0.34015675819600 -0.65598270377300 0.70870351560200
0.62994718831800 -0.57694026656000 -0.75420328030200
-0.59756759811100 -0.46036115145100 -0.23856970273800
0.15822802238700 0.53877027201300 0.81991488133700
0.20018743176800 -0.70659885511200 -0.45503750186500
-0.09903642381800 0.60581204978800 0.76884039216800
0.66919262377100 -0.17112998963700 0.27845853568200
0.12374462813500 -0.70758368855800 -0.17187170780600
0.10378880143600 -0.44938959431300 -0.82650390013900
-0.44992128769700 -0.47300073965800 0.32039454369500
0.65912285520100 -0.38944136484500 -0.13338147701200
0.52051210303200 -0.70435677931800 -0.58800623142900
0.08374147417300 0.55287682848400 0.20176405852500
-0.00601640107000 -0.42791711328500 0.45606469596700
0.11192527676400 0.06519353140600 -0.64222341642300
0.32262031487200 0.09097719846300 0.54892073236400
-0.18088811015400 -0.70441877562500 -0.55197371132900
-0.48441124155500 -0.00944844160700 0.26718778876400
0.41234317009200 -0.62908438860900 0.42175396339700
0.10704589880600 -0.23691523447900 0.53520948138700
0.43543108264700 0.17853676237400 -0.17589670027400
0.29248563561200 -0.04406861596400 -0.60491719932100
0.30743863269000 0.15687635948800 -0.43545427518600
0.49925377257100 0.08696553443700 -0.03682002125200
0.10185300576200 -0.61474953424200 0.50990545813500
-0.42089177084100 0.30103406559300 0.02167865421300
-0.26071188208000 -0.21473043126800 0.46453184333900
0.97069210736700 -0.62577143758200 -0.74563080974900
-0.51044524142900 -0.12633231724800 0.18579277193600
-0.37603843529500 -0.67540940592500 -0.09484890549300
0.00878808246700 0.54355767235700 0.09638928469900
0.62890186363000 0.11358835274700 -0.01564416447200
-0.19341290109400 0.16065619927800 -0.53191938316700
-0.43218258408600 -0.69482726728600 -0.40261305377500
0.60096362967100 -0.60426570020200 -0.74394354265700
-0.31837837694400 0.61586269551300 0.49064799979500
-0.65752984300000 -0.50468842255800 -0.79872978413800
0.64026666181800 0.13578447243900 -0.21055840758800
0.30227625669300 0.36311817620500 -0.04025271060900
-0.17711278105000 0.12148950394000 0.78827475105000
-0.06752408972200 0.01622511234300 0.72712772886800
0.55572308094500 -0.45371180045600 0.29358653421700
-0.35329259950300 -0.00647719866400 -0.53655034371700
-0.78737986502800 -0.31752002201800 -0.38494495269400
-0.01530018532100 -0.71305630149100 0.42466906893800
-0.80432043683300 0.02052088235000 -0.30169450165400
0.62694382771300 0.07622688714100 0.31580845865200
-0.71941105732600 -0.24246175102800 -0.14955783340100
-0.53639302133600 0.10345953590200 -0.39454845257400
-0.44384735778900 0.13086176991100 0.32146187305700
-0.12706715039900 -0.70693116663200 0.47860207022900
-0.62923269863000 0.17541229468800 0.02905646875200
0.65857738096500 -0.09956017392100 0.28073241774900
0.64603252750300 -0.10496029565800 -0.46602365573700
-0.32727210134300 -0.70263207370400 0.39282697543200
0.10202389886500 -0.05440816500700 -0.73161062678600
0.34753416509400 0.28962169115400 0.70065528722600
0.03349010296800 -0.70761218513100 -0.10193205065500
-0.77704203448500 0.09313783420100 -0.15674579955500
-0.18774842200500 -0.33164880731500 0.46351190864300
-0.02515016546500 0.69813638659200 0.41872446151900
-0.44368357866300 0.27142381830800 0.00582006038400
-0.08051343095200 0.27109135905700 -0.50708955295400
0.28855537248100 0.42181030271600 0.26367594374000
-0.40533075185500 -0.69991054791000 -0.55135460380200
0.03227134388400 -0.69965796365600 0.48246546780400
0.43961728971100 -0.52984740242200 0.36649906948000
-0.56690264880400 -0.52745843974300 -0.76029160412500
-0.69816569403900 -0.48816114430900 -0.70782457543300
-0.03842498342900 -0.70368609475500 -0.36752975106200
0.02652925205200 0.56362247016900 0.84526594169300
-0.34361922443600 0.09714243032300 -0.49178673044000
-0.19195245267400 0.69501487475000 0.49703949966000
0.14756120575000 -0.33971656707800 0.49569594249700
0.01990978541000 0.52173814205400 -0.17372933426300
0.46027203553400 -0.65303959954100 0.56776511248600
-0.15566206722200 -0.30551664040300 0.48751154858000
-0.42785824939900 -0.69915994137600 -0.51764214342200
0.80305158885100 -0.26684276967900 0.04434482864300
0.49237432825900 -0.21795793534200 0.27716291864000
-0.59703152384400 -0.65615501710700 -0.46875232725800
-0.74678448116900 -0.48967739490400 -0.54164332898900
0.87598424622900 -0.69316657765200 -0.58091933136800
-0.63318424219700 -0.45002003504600 -0.68023290478600
-0.39322391108700 0.11011140435200 0.53047052585800
0.58952824618100 -0.04377050057300 -0.50312496859800
0.65878249964300 -0.04862189085700 0.30321327531300
0.42346628605600 -0.62999971434600 -0.69044054838200
0.34823023033400 -0.67778268666400 -0.62779757660200
-0.23755732581700 0.55292285349700 0.72475284931700
-0.23454521005600 -0.69753591284200 0.59375990595900
0.67422510407900 0.13670567300600 -0.13735331436400
0.49542665469900 0.09228158888900 -0.07519324771200
0.73489063024600 -0.35435003672200 0.14000655747400
0.72028218722400 -0.52127541012100 -0.60936699563100
0.08159567434600 0.51530554181200 -0.06098000882500
0.23319978575800 0.05161008503300 -0.58194578410500
0.39252179814500 -0.19352669989200 -0.73566504048000
0.04873021605500 -0.67248530845500 -0.68560113852200
-0.33627394501600 -0.69608624235600 0.54538729000700
0.28067242138400 -0.71006558885800 0.46063313839000
0.82425418183800 -0.67776686069900 -0.45236863651000
0.21562888980300 -0.70807819311100 0.57642079157400
-0.07250256557900 -0.70762782250000 -0.00019442893200
-0.06928081374300 -0.28916399283000 -0.84120055866400
-0.42926381619100 -0.23407254691900 0.26148888719200
-0.03781935277700 -0.14315777899500 0.55091879016300
0.32245445968400 0.22157945468300 0.70268383092300
-0.18041290101700 0.40008386046900 0.90884455893600
-0.04702479103300 0.57558418431700 0.82828761586900
-0.47900403238200 0.25073437567000 0.00225997106000
-0.44338828170000 0.33423576467800 0.16712689697700
-0.23215877735200 0.34815240996500 -0.31457870309100
0.17599229286700 0.62523334204000 0.70161448369200
0.25800563649500 0.65610419305400 0.54017442778800
0.41359497609900 -0.68766923987100 0.51728540412200
-0.39538036435300 0.07300547153300 -0.45539579280300
-0.22327049640600 -0.50431205431800 0.41787459302600
-0.22100361654000 -0.70155247466500 0.08686744582200
-0.52471728611100 0.23849674040200 0.24018380207100
-0.24501899871200 0.13527916801700 0.74277381320700
-0.02254608710200 -0.32083286517500 0.51864588507600
-0.09464504319000 0.53874111620400 0.87385316803200
-0.16904011417700 0.02093501522600 -0.64426793522000
0.29135146923800 -0.71081644027700 -0.10307494323900
0.23945180818100 0.22689690783300 -0.41900891444400
0.52028338397400 -0.09117599420600 -0.59707896077600
0.07331695843300 -0.56338628938800 -0.79309323693600
-0.70754826470100 -0.34862808613600 -0.00912252383300
-0.11570185132400 -0.58776724113300 0.46936972990600
-0.16164998609100 -0.00910469532100 -0.66903369306300
0.81342861888200 -0.69595438148000 -0.63668796666200
0.41029605020800 -0.70525296137700 -0.38640051633900
-0.08598218271900 -0.10833789646100 0.55455565211000
-0.04188310434300 -0.22703442159100 -0.83445898236700
0.08119813183700 0.29105705185700 -0.47329230025100
0.34471555496400 -0.70519926951800 0.65200611675800
-0.29284684092900 -0.21911682125500 0.44228481436000
-0.27592102871400 -0.70331145753500 -0.38519279770200
0.66626797123000 -0.38276661334100 0.10833732746700
