-0.112157 0.262083 -0.021791
-0.026026 -0.783551 0.028829
-0.116475 -0.200576 0.160269
-0.029599 0.706902 0.772685
-0.050731 -0.503842 0.333737
-0.451776 0.932904 0.397134
-0.034312 -0.651273 -0.103428
0.413611 -0.658586 0.049485
0.435465 -0.470848 0.283860
0.425509 -0.658718 0.238194
0.203467 0.021550 0.312471
0.035006 0.550241 0.227630
0.026451 0.383636 -0.158443
-0.006328 0.318974 -0.663952
-0.076833 -0.629831 0.276186
-0.122375 -0.263456 0.110192
0.078410 -0.015802 0.302371
-0.075740 -0.151724 -0.099074
-0.044619 0.036692 -0.080948
-0.096947 -0.427011 0.234185
0.111034 0.345268 0.554201
-0.001525 0.393300 -0.158944
0.355167 -0.793517 -0.651381
0.048629 0.395126 -0.142989
0.397449 -0.665882 -0.315385
0.053787 0.442379 0.608195
0.308378 0.203224 0.288140
0.320287 0.471793 0.053235
0.064536 -0.628255 0.372219
0.272641 0.131708 -0.101982
-0.051474 -0.015128 0.219413
-0.119281 0.284529 -0.038711
-0.122302 -0.226697 0.139770
0.413382 -0.657961 -0.809329
0.065717 0.318227 0.476694
0.129281 0.648328 0.655143
0.031537 -0.766136 0.269296
0.416926 -0.278986 0.195619
0.206006 0.287715 -0.191988
0.130409 -0.036670 0.310808
0.016184 0.333310 -0.501626
0.316400 0.460706 0.023042
0.378009 -0.026773 0.193758
0.303353 -0.639048 -0.349449
0.025764 0.423513 -0.118446
-0.070998 0.182057 0.040793
0.396512 -0.203706 0.240044
0.269215 -0.770439 0.138290
0.020709 0.387996 0.410381
0.375054 -0.038399 -0.053974
-0.135948 -0.164743 0.063329
-0.068924 0.422775 -0.033118
-0.065614 -0.846256 -0.826333
0.021932 0.285502 0.382077
0.139190 -0.401796 -0.063983
0.195271 -0.362943 -0.096961
0.410346 -0.052439 0.128462
0.400417 -0.616902 -0.121521
0.026499 0.650629 0.761556
-0.039462 0.065784 -0.068328
0.349788 0.118671 -0.741006
0.433948 -0.427044 0.238820
0.268715 -0.778395 0.166079
-0.418103 0.996896 0.437214
0.136571 -0.438475 0.403809
0.167012 0.274340 0.474120
0.315224 -0.697403 -0.260641
-0.105962 0.682654 0.596763
-0.078311 -0.280753 -0.052095
-0.085896 -0.599378 -0.075154
0.247904 0.472554 -0.002350
0.293513 -0.637066 -0.321753
0.369636 0.149893 -0.654965
-0.040325 -0.887069 -0.575950
0.287116 0.126427 -0.675094
0.274546 -0.106938 -0.160890
0.116017 -0.188684 0.332090
0.358227 0.064814 0.172550
0.010482 -0.172942 0.289899
-0.051951 0.062396 0.205074
0.399091 -0.184533 -0.036767
0.001295 -0.092264 -0.170096
-0.070927 -0.181257 -0.099587
0.070984 0.731786 0.561327
0.152599 0.585830 0.296298
0.346446 0.292914 -0.173093
0.025862 0.707986 0.755970
0.229114 0.410383 0.408364
0.162309 -0.260516 0.356244
-0.189742 0.704854 0.591915
-0.109640 0.251321 0.027807
-0.114983 0.353750 0.141818
0.356242 0.358289 0.197387
0.391858 -0.044380 0.178420
0.362301 -0.351629 0.348629
0.287965 0.465478 0.276097
0.200044 0.416751 0.487554
-0.017913 0.825598 0.633802
0.273910 0.329760 0.350301
0.013351 0.128119 -0.103908
0.350983 0.133625 0.079021
-0.092047 0.418323 -0.828559
-0.063458 -0.965167 -0.652071
0.217611 -0.356830 -0.097845
-0.092625 -0.758996 -0.163500
0.419372 -0.643321 0.011692
-0.006309 -0.687696 -0.116515
-0.134290 -0.594470 0.019137
0.044754 -0.773917 -0.074321
-0.093209 -0.724887 -0.054228
0.088403 0.537853 0.708198
0.242066 0.089020 -0.153304
-0.001270 -0.916168 -0.348848
0.223000 0.506963 0.424747
-0.101571 0.639900 0.647634
0.455088 -0.529217 0.164320
0.232168 -0.164196 0.330385
0.349426 0.291341 0.230391
0.324898 0.283694 -0.254849
0.091057 0.144475 -0.194908
-0.074793 -0.088322 0.210493
0.250467 0.469086 0.355379
0.351247 0.357400 -0.104405
0.453620 -0.540106 0.189383
0.025342 0.284186 -0.297148
0.355181 -0.725830 -0.331991
0.062918 -0.102161 -0.196959
0.032261 -0.795730 -0.172814
0.185213 0.499443 0.044198
0.204668 -0.084187 -0.192063
0.242381 -0.664333 0.363378
0.122977 -0.786053 0.233344
0.171362 0.214020 0.430221
-0.100905 -0.015340 0.146346
0.354226 0.205608 -0.043103
0.295398 0.499416 0.183834
0.244342 -0.536275 -0.042136
0.254845 0.502797 0.063150
0.423875 -0.254590 0.186132
-0.001696 0.379068 -0.389477
0.283098 -0.322707 0.374717
-0.045562 -0.414628 0.335103
0.241027 0.521238 0.349151
-0.281972 0.954629 0.527014
0.351753 -0.369653 0.365259
0.336840 -0.767481 -0.690257
-0.013466 -0.074814 0.259762
-0.275666 0.790698 0.449139
0.386244 -0.507739 0.354513
0.193939 0.236608 0.423768
0.240513 0.206628 -0.334975
-0.143061 0.808955 0.775483
0.179468 0.577821 0.301132
-0.007116 0.460223 0.360051
0.170385 0.097173 0.357828
0.208142 0.196830 0.388864
0.158124 -0.444326 -0.031228
0.066447 0.442089 -0.079478
0.133550 0.389517 -0.141955
0.375817 -0.686947 -0.703130
-0.055553 0.397564 -0.142356
0.106303 0.565355 0.233990
0.333939 -0.703918 -0.009885
-0.013316 -0.801368 -0.130575
0.311678 -0.723796 -0.774221
0.164074 0.524220 0.608086
-0.127484 -0.078939 0.067502
0.387971 0.308771 0.015370
0.300284 -0.663986 -0.330997
0.000086 -0.779722 -0.304707
-0.012189 0.466511 -0.774682
0.183482 0.125657 0.368686
0.369100 -0.570760 0.356490
-0.062174 0.301339 0.286673
0.027647 0.355187 -0.346656
-0.212023 0.789958 0.735580
0.179823 0.583437 0.540174
0.182958 0.558054 0.547893
-0.106131 -0.275165 0.168807
0.068046 0.164726 -0.192293
-0.118049 -0.285225 0.086112
-0.009514 0.499752 0.462793
-0.056222 -0.898337 -0.611828
0.079801 0.531859 0.168971
0.218308 0.369797 0.428894
-0.054961 0.702984 0.429189
-0.049037 -0.962366 -0.825046
0.212331 0.569067 0.349283
0.296301 0.172163 -0.742392
-0.047151 -0.892707 -0.688865
0.274339 0.157481 -0.468481
0.415808 -0.092190 0.159359
-0.106904 0.890756 0.810457
0.230979 0.195695 -0.239714
-0.111688 0.916101 0.702913
0.085802 -0.123525 0.312478
0.378623 -0.539641 0.356879
-0.056706 -0.894152 -0.478958
0.013197 0.418778 0.369930
-0.110868 -0.241447 -0.016099
0.213514 -0.308436 -0.122325
-0.112288 -0.113396 -0.033468
-0.306892 0.803418 0.523378
-0.206651 0.837491 0.427771
0.017230 0.538191 0.682911
-0.041788 -0.857658 -0.299233
-0.097204 -0.299520 -0.002616
-0.163805 0.821842 0.768438
-0.087825 0.234776 -0.088149
0.034896 0.463719 -0.039255
-0.086778 0.806160 0.778397
-0.014912 0.263255 -0.436253
0.000951 0.535211 0.310102
0.020756 0.536942 0.252336
0.040081 0.290017 -0.248055
0.421456 -0.150190 0.002901
-0.050327 0.156270 0.223406
-0.084748 -0.879435 -0.802951
-0.024509 0.220592 -0.145914
-0.384112 0.996948 0.387522
0.138462 0.633430 0.385444
0.330258 -0.671276 -0.166230
-0.317126 0.813509 0.568824
-0.035649 -0.844769 -0.279867
0.160371 -0.391662 -0.072464
0.086451 -0.317049 0.367533
0.328487 0.479055 0.144846
0.281233 0.436350 -0.031419
0.211332 -0.597727 0.391252
-0.005842 -0.894059 -0.827124
0.179587 -0.320409 -0.121589
0.055619 0.261678 0.410547
-0.132087 -0.161373 0.029674
0.317978 0.338818 -0.185012
-0.110457 -0.680237 -0.049506
0.119753 0.091377 0.357687
0.307798 -0.678835 -0.351820
-0.027507 -0.844169 -0.419873
0.220466 -0.620768 0.383887
0.003426 0.141232 -0.085026
0.016007 -0.514991 0.378757
-0.009864 -0.308294 -0.092575
0.318829 -0.756054 -0.676308
-0.117650 0.805450 0.777232
0.329374 0.161132 -0.824518
0.022916 0.281176 -0.328919
-0.089652 -0.637702 0.252215
-0.005536 -0.947258 -0.737920
-0.003853 0.483877 0.435996
0.125466 -0.048602 -0.206030
-0.013287 0.532743 0.336721
-0.117445 0.273981 0.043478
-0.045018 -0.272280 -0.089572
-0.047130 0.864130 0.624972
-0.090118 0.682706 0.498942
0.012154 -0.631920 -0.062307
-0.090111 -0.906291 -0.829036
-0.057215 0.012161 -0.079298
0.316284 0.166643 -0.037861
0.123807 -0.566805 0.396260
0.124362 -0.350812 0.385511
-0.122581 -0.615648 0.178751
0.095742 -0.293645 -0.144380
0.364030 -0.674140 -0.249880
0.170578 -0.576930 -0.042676
0.362285 0.178590 0.112216
-0.101449 -0.609107 0.245882
0.019456 -0.901962 -0.786131
-0.080331 0.627971 0.694604
-0.062470 -0.412294 0.041442
0.139618 -0.669341 -0.002297
0.352674 0.117704 0.154460
-0.180769 0.906656 0.455057
0.372368 -0.473001 0.367559
0.061705 0.718948 0.718207
-0.006386 0.204742 -0.128351
0.283857 0.272253 -0.386855
-0.096236 -0.677661 -0.106644
0.012750 -0.198920 0.294698
0.148689 -0.576998 0.395239
0.377997 -0.693374 -0.323343
0.429124 -0.600080 -0.034096
0.436062 -0.445119 0.258067
-0.019291 -0.912716 -0.298989
0.048281 -0.730754 -0.032993
0.403652 -0.730492 -0.801285
0.106815 0.123954 -0.198772
-0.023759 -0.745520 0.234595
0.225948 -0.048521 0.311776
0.091781 0.712784 0.549276
0.254986 -0.728073 0.314856
0.069525 -0.514506 -0.040045
-0.103572 -0.315393 0.045400
0.137418 0.173857 0.408480
-0.294817 0.920479 0.598115
-0.059639 0.603372 0.682659
0.270023 0.250252 0.344287
0.289444 -0.225625 -0.128683
-0.308054 0.844602 0.622473
-0.025197 0.327511 -0.695232
0.023861 0.352420 -0.310822
0.350728 0.311195 -0.150693
0.427893 -0.278356 0.132982
-0.032176 0.739015 0.777585
-0.047267 0.411075 -0.083315
-0.043717 -0.232154 0.257065
-0.164108 0.928355 0.685509
0.370398 0.382203 0.051704
0.316603 -0.566955 0.381990
0.327523 -0.713241 -0.466515
0.177842 -0.730107 0.081688
0.315258 0.224286 -0.194839
0.285340 0.391917 -0.115423
0.395253 -0.295754 0.029613
0.022648 -0.808719 -0.328645
0.167603 0.467782 -0.033640
0.051377 -0.796062 0.223701
0.403222 -0.374408 0.034715
0.017367 -0.904679 -0.369491
-0.102568 0.385968 -0.026412
0.330898 0.182887 -0.384531
0.258198 -0.509211 -0.040096
0.326125 -0.065741 0.273035
0.361629 0.267057 0.184388
0.426185 -0.119701 0.147166
-0.014401 -0.735383 0.263737
-0.120484 0.325405 0.061103
-0.084814 -0.377361 0.195013
0.261585 0.082883 -0.130087
0.426383 -0.401516 0.034647
0.035991 -0.696819 -0.005544
0.003029 -0.293532 -0.110374
0.405601 -0.448324 -0.048337
0.360271 -0.404566 -0.064649
-0.035241 0.024017 -0.102900
-0.048521 0.268429 -0.277600
0.131782 0.678119 0.552233
-0.120558 0.930210 0.647927
0.146081 0.147046 -0.199045
0.344067 0.114334 -0.771073
-0.014931 -0.705036 0.295302
-0.085193 0.202514 0.066000
0.293176 -0.252862 -0.115058
0.307545 -0.132671 0.302177
0.045843 0.735313 0.540689
-0.100664 -0.049865 -0.033574
0.241311 -0.705208 0.033378
0.056231 0.504641 0.093958
0.184868 -0.211717 0.342622
0.221972 0.219363 -0.246607
-0.024641 0.534080 0.434961
0.008373 -0.913897 -0.480620
-0.033203 -0.877035 -0.828536
0.189760 -0.091855 0.317962
0.001048 0.501866 0.078504
0.030321 0.668519 0.394074
0.241567 0.524365 0.305710
0.278007 0.156238 -0.792192
0.294058 0.130762 -0.537067
0.350961 0.096915 0.172872
0.393065 -0.391187 0.335716
0.034351 0.771576 0.704931
0.355297 0.046620 -0.029415
-0.057579 0.278173 -0.174612
0.004654 -0.798278 -0.044668
0.129712 -0.151678 0.324584
-0.088304 0.881851 0.794207
-0.103332 -0.717113 0.082739
-0.013264 -0.817391 -0.160013
0.366094 0.251571 0.162794
0.131493 0.679911 0.609267
0.344101 -0.384630 -0.064498
0.434523 -0.146808 0.106855
0.302078 -0.485809 -0.063839
-0.028555 -0.264020 -0.106971
0.277103 -0.198048 0.328044
0.203423 -0.188073 0.336923
0.068407 -0.072182 -0.200493
0.027133 0.365127 0.428839
-0.030512 0.382182 -0.521035
0.239208 0.511911 0.094508
-0.003376 0.201897 -0.190726
0.353798 0.148180 0.108052
0.088459 -0.013331 -0.204885
0.280761 0.197526 -0.824551
-0.395534 0.976021 0.482813
0.140935 0.480307 0.007504
0.102655 -0.797083 0.214603
0.202640 -0.761368 0.278252
0.059733 0.408939 0.572042
-0.042689 0.765849 0.777337
0.176713 0.360599 -0.161218
0.303525 0.018141 0.262965
0.241065 -0.637377 0.377025
-0.088475 0.629501 0.610419
0.022733 0.442759 -0.089105
-0.162313 0.733111 0.433027
-0.056482 -0.293936 -0.068199
0.250829 -0.211368 0.339865
0.428733 -0.634379 0.036977
-0.006124 -0.950084 -0.491959
0.175411 -0.713037 0.057336
0.108793 0.451585 -0.056839
-0.221456 0.729009 0.624023
-0.103501 0.688322 0.746679
0.254782 -0.130700 0.320238
-0.108492 -0.477738 0.247789
0.052626 0.079258 0.313894
0.436374 -0.199072 0.089840
0.233740 0.368958 0.397177
0.197249 0.471363 -0.036561
0.366915 0.208525 0.105499
0.334030 0.458737 0.196267
0.402035 -0.383230 0.010225
0.213570 0.478248 -0.008471
-0.053436 0.337537 -0.290792
-0.221264 0.768790 0.440215
0.177795 0.147816 0.385123
-0.056852 0.009734 0.208576
0.408244 -0.632860 -0.071462
-0.062820 -0.910586 -0.676575
0.419456 -0.582676 -0.192984
-0.083107 -0.747776 -0.038030
-0.035266 -0.710126 -0.247629
0.016490 0.421879 0.488417
-0.015852 0.519481 0.490357
-0.097259 -0.703853 -0.103907
0.128398 0.671867 0.635855
0.452086 -0.589171 0.061250
0.297396 -0.593000 -0.281593
-0.016642 0.620440 0.396594
0.110796 0.507454 0.109643
-0.052243 0.356486 -0.389391
0.417473 -0.362320 0.262549
0.227546 0.529532 0.221066
0.048491 0.060309 -0.187469
0.115035 -0.605782 0.385997
-0.114969 -0.291602 0.058504
0.245651 -0.772766 0.245590
0.023132 -0.857869 -0.214038
0.138758 0.666011 0.498671
0.321221 -0.708846 -0.395496
0.419962 -0.528179 -0.060494
-0.029907 0.409510 -0.137026
0.307051 0.346175 0.307309
0.009793 0.433690 0.434170
-0.077534 -0.378549 0.251144
-0.117743 0.364581 -0.003808
-0.035489 -0.656746 -0.185117
-0.069947 0.062195 -0.020570
0.271856 -0.162299 -0.156466
-0.103688 0.426218 0.110040
0.327597 0.282289 0.278758
-0.181641 0.720717 0.780209
-0.105312 -0.452543 0.039200
-0.437306 0.903693 0.392423
0.357782 0.154497 -0.596730
0.292707 -0.616672 -0.300119
0.303897 0.264127 0.311289
0.308710 0.461658 0.248962
0.050820 0.698817 0.738892
0.241187 0.206610 -0.366964
0.269073 -0.407047 -0.068254
0.027013 -0.853803 -0.379892
0.366998 0.131513 -0.693686
0.020848 0.381022 -0.679396
-0.088908 0.928136 0.754726
0.304013 0.446140 0.274195
0.382439 -0.213397 0.257859
0.318299 0.368068 0.288555
0.127215 -0.473629 -0.029757
-0.044166 -0.755432 0.155033
-0.021495 0.494800 0.163309
0.389112 -0.682479 -0.393234
0.287828 0.217848 -0.824024
0.235908 0.423010 0.382949
0.004838 -0.800984 0.123661
0.224586 -0.419375 -0.053371
0.043365 -0.810731 0.145418
-0.071101 0.466642 0.046852
-0.421483 0.944458 0.483035
0.318561 -0.484433 0.393407
-0.061189 -0.187189 0.237760
-0.077836 0.078725 0.137178
0.026145 -0.830147 -0.196998
0.006829 0.368566 -0.525587
-0.055687 0.471894 0.024030
-0.114542 0.314712 0.099935
-0.111141 0.922609 0.672339
-0.114004 -0.587689 0.227394
0.343091 0.037864 -0.056212
0.005117 0.457855 0.416642
-0.050134 -0.987391 -0.660706
-0.035505 -0.852458 -0.225801
0.456836 -0.588784 0.162492
0.145641 -0.059177 0.312649
-0.082289 -0.044636 0.191788
-0.104859 -0.090662 0.168782
0.416664 -0.354938 0.227892
-0.003014 -0.279142 0.306238
0.353542 0.277678 -0.146954
-0.073595 -0.780430 -0.208470
0.286679 0.290364 -0.336155
0.182816 -0.248876 -0.158795
0.306459 -0.543303 -0.128623
0.033300 0.261456 0.388630
0.097085 -0.772233 0.014160
-0.127151 -0.249699 0.084741
0.100176 0.115897 0.371131
0.112760 0.705360 0.625800
0.125436 0.032111 -0.205113
0.325160 0.313743 0.279874
0.418642 -0.253493 0.038077
0.082970 -0.649123 0.368001
-0.050196 0.762679 0.450518
-0.284995 0.840682 0.645156
0.267215 -0.297279 -0.108958
-0.107824 -0.315635 0.101395
0.188844 0.513431 0.110374
0.000692 0.673239 0.404666
-0.084234 0.316138 -0.191661
0.200050 0.026998 -0.189641
0.264066 0.481091 0.016476
-0.140917 0.919374 0.698122
0.398043 -0.669661 -0.030293
0.024871 -0.588832 -0.078199
0.178656 -0.017982 0.312562
0.304590 -0.275480 0.343477
-0.072055 -0.523404 -0.035707
0.374278 -0.505758 -0.194657
0.019464 0.166594 0.340480
0.279270 -0.355192 0.388232
-0.064843 -0.036927 -0.095681
-0.091229 -0.911581 -0.787253
0.381861 -0.716442 -0.480568
-0.387673 0.969616 0.366795
0.097843 0.050088 0.329055
-0.019683 0.417797 -0.674637
-0.077928 0.645602 0.726031
-0.037031 0.550218 0.562027
-0.051149 0.330573 -0.316707
-0.070293 0.104646 0.141674
-0.082905 0.832339 0.448867
-0.049044 0.112271 0.210089
0.056304 -0.127107 0.303505
0.129706 -0.383290 -0.081620
-0.080771 -0.760630 -0.250883
0.275303 0.260947 -0.408295
0.216508 0.103761 0.334230
0.021674 -0.729654 -0.209525
-0.037424 0.548584 0.590826
0.357350 -0.722983 -0.305991
0.454887 -0.573113 0.111489
0.171812 0.350628 0.522202
0.313446 0.229317 -0.242880
0.379843 0.356609 0.047895
0.056992 0.628928 0.331582
0.385883 0.280326 0.002420
0.140505 0.648899 0.626036
0.315896 0.158385 0.253188
0.044708 -0.121194 -0.189055
-0.005551 0.516095 0.613614
0.449079 -0.473604 0.177311
0.384611 -0.380244 -0.018423
0.434795 -0.224257 0.140648
0.286981 0.134694 -0.641642
-0.084328 0.047821 0.002379
0.090580 0.515969 0.134104
-0.115317 -0.617747 0.207989
0.185323 0.297022 0.463533
-0.022228 0.194429 0.312504
-0.032029 -0.411497 -0.006932
0.314998 0.079660 -0.062314
0.231248 0.219791 -0.289673
0.149446 0.026770 0.320904
-0.047484 -0.204011 0.251869
0.303425 -0.030525 -0.127966
0.038100 -0.415010 -0.032317
0.095921 -0.585438 0.389756
0.400185 -0.033509 0.144349
0.302428 -0.590342 -0.226682
0.257885 0.187898 -0.450144
0.317745 -0.514655 0.391279
0.034993 0.547161 0.704806
0.403656 -0.324669 0.223234
0.453629 -0.602434 0.187427
0.037463 -0.668050 0.348114
-0.316883 0.958732 0.512781
0.303117 -0.346346 0.379360
-0.076126 -0.404109 0.091998
-0.108580 0.410732 0.088218
-0.053191 0.619823 0.533120
-0.001012 0.287098 0.363356
0.437547 -0.617251 0.248745
0.338805 0.243986 -0.144311
0.028608 0.756748 0.727650
-0.105184 -0.449830 0.216142
-0.040433 -0.643709 -0.080170
0.307108 0.425025 -0.030310
0.007140 -0.950945 -0.789556
0.402646 -0.232047 0.234120
0.308836 -0.696541 -0.291422
-0.089870 0.674226 0.577036
-0.118479 -0.045891 0.103185
0.349528 -0.651416 -0.440382
0.323584 -0.209918 0.306365
-0.073980 -0.915473 -0.829020
0.022159 0.349436 -0.201311
-0.049275 0.870274 0.679157
-0.140286 0.873073 0.785611
-0.284563 0.761027 0.590233
0.065053 -0.788129 0.245435
0.361444 -0.171717 -0.084385
-0.012831 0.234323 -0.215062
0.229624 -0.625172 -0.044697
-0.027620 0.296363 0.332712
0.349752 -0.488314 -0.165026
0.183636 -0.207375 -0.174494
0.327677 -0.670377 -0.064943
0.029637 0.525549 0.190779
0.025572 -0.800041 -0.303976
-0.069091 -0.389545 0.066882
0.037772 0.513401 0.117748
-0.120459 0.664563 0.678370
0.161169 -0.105193 0.317937
0.028056 -0.723900 -0.084220
0.345090 0.181621 -0.506623
0.012793 0.784832 0.717717
0.209266 -0.257168 -0.149454
0.003955 0.587294 0.328983
0.411366 -0.592485 -0.221925
-0.032396 -0.709795 0.272868
0.450286 -0.456677 0.055276
-0.062894 0.887959 0.607558
-0.003817 -0.634667 0.343486
-0.055810 -0.638487 0.298710
0.005754 0.310624 -0.520113
0.322026 -0.627392 -0.368855
-0.141578 0.681676 0.496711
-0.388558 0.873355 0.480799
0.113115 -0.537287 -0.042007
0.389309 0.172431 -0.781852
0.127207 -0.008825 0.311994
-0.062316 0.670654 0.507730
-0.065677 0.887501 0.496013
0.363585 -0.242039 -0.053636
0.187005 0.393042 0.512312
0.083754 0.307580 0.496849
-0.052793 -0.844510 -0.805232
-0.002165 0.727500 0.453057
0.080818 -0.040692 -0.203259
0.369574 0.120948 -0.786182
0.394824 -0.310179 0.254748
0.403134 -0.653565 -0.055364
0.272019 0.136791 -0.139877
0.266389 -0.134384 -0.163633
0.032219 -0.473010 0.386868
-0.244213 0.923889 0.639845
0.320685 0.320554 -0.205627
-0.115282 0.799070 0.424420
0.238840 0.276378 -0.294273
0.060424 -0.022069 -0.199322
-0.079163 0.868355 0.775536
0.031835 0.767750 0.581757
-0.315933 0.968014 0.485801
-0.055643 0.357605 -0.446098
-0.032504 0.476931 0.004253
-0.061537 -0.065124 -0.109984
0.019723 -0.927288 -0.793422
-0.041096 0.147553 -0.011470
-0.089024 -0.073800 0.190045
-0.129574 0.908167 0.721873
0.238180 -0.238619 -0.149655
0.376842 0.364389 0.021685
0.401510 -0.059950 -0.010431
-0.003792 0.178507 0.325172
-0.108971 -0.067234 0.151806
0.004743 -0.728441 0.291144
-0.077870 -0.363370 0.056009
-0.245830 0.749189 0.459965
0.199692 -0.745244 0.305757
0.248362 -0.346734 -0.090986
0.454999 -0.590356 0.089923
0.263820 0.048357 0.287240
-0.264128 0.933580 0.605851
0.011730 0.391410 -0.706440
0.048094 0.615619 0.748421
0.320376 0.219715 -0.140580
0.029059 -0.020363 0.278617
0.330029 0.411584 -0.020836
0.083994 -0.528286 0.397143
-0.082263 0.396584 -0.787607
-0.051567 0.427773 -0.728835
0.009482 0.314679 0.371373
-0.057249 0.659970 0.751935
0.421244 -0.558963 -0.184783
0.312964 -0.764247 0.103549
0.359525 -0.096642 0.254996
-0.048964 0.277374 -0.301699
-0.125526 0.902076 0.457155
-0.107717 0.376257 0.162670
-0.076227 0.081852 0.028001
-0.097186 0.359006 -0.135545
0.319859 0.242238 -0.822665
-0.092534 -0.652422 -0.094441
0.009736 0.029420 -0.159333
0.222412 0.307486 -0.194167
-0.089512 0.255677 0.205122
0.287817 0.159178 -0.652998
-0.026561 0.500143 -0.828326
0.325861 0.437893 0.003926
-0.064136 -0.863412 -0.333759
0.119580 0.640133 0.677931
-0.072683 0.376984 0.258199
0.444909 -0.618848 0.056529
0.352954 -0.740252 -0.744443
0.272789 -0.106839 0.310789
0.386183 0.027595 0.065672
0.204050 0.145899 0.365953
0.342623 0.174933 0.028071
0.284573 0.156927 -0.552924
0.293946 0.208570 0.314478
0.331412 -0.638228 -0.398637
-0.068835 0.903103 0.787426
-0.083889 -0.357161 0.168950
0.334748 -0.255498 -0.077788
0.360383 0.013426 -0.047293
0.331956 0.210526 -0.505729
0.267132 0.186459 -0.478443
0.423241 -0.285765 0.106518
-0.020805 0.372991 -0.325782
0.210130 -0.499465 0.407214
-0.100370 0.027076 0.077783
0.309662 -0.475106 -0.087889
0.120481 0.154957 -0.197867
-0.122364 -0.122945 -0.005066
0.310804 -0.500138 -0.138615
-0.094772 -0.730320 -0.115053
0.073334 -0.413350 -0.044143
-0.029978 -0.879133 -0.734865
-0.011101 -0.985262 -0.595904
-0.072231 -0.117417 -0.104298
-0.060394 0.885914 0.519987
-0.048607 0.265349 -0.242052
0.371998 0.325911 0.123984
0.025462 0.336153 0.384842
0.001343 -0.685287 -0.076975
-0.104136 -0.717966 0.052530
-0.056808 0.385947 0.279770
0.408148 -0.642163 0.289926
-0.132467 0.934618 0.501102
0.124389 0.339450 -0.171062
0.142898 -0.729745 0.323403
-0.274062 0.927655 0.423253
0.275150 -0.345708 -0.080729
0.310260 0.197451 -0.245166
-0.071152 0.176993 0.067257
0.181353 0.595211 0.510607
-0.112619 -0.472336 0.017160
0.161744 0.413208 0.584896
0.242586 -0.398659 -0.070991
0.404991 -0.152476 0.218402
0.352571 0.240496 0.206658
-0.066787 -0.331187 0.226394
0.400758 -0.016582 0.050702
0.239607 -0.549829 0.400566
0.345788 -0.766208 0.175238
0.073747 0.612799 0.307205
-0.011376 -0.561557 0.358924
-0.083657 0.353551 0.245855
-0.080445 0.730970 0.771709
-0.055739 0.093449 -0.020266
0.002018 0.191026 -0.104401
0.368481 0.281232 0.159399
-0.056624 -0.899646 -0.636845
-0.041873 -0.358677 -0.028902
0.334053 -0.676224 -0.483097
0.431049 -0.439458 0.288984
0.012564 -0.878577 -0.221480
0.275771 -0.734728 0.066854
-0.088852 0.004167 0.163925
-0.095394 0.223152 0.082665
0.357881 0.111750 0.104333
-0.063639 0.340510 -0.465568
0.239067 -0.211950 -0.159874
0.423992 -0.387073 0.270289
-0.057309 0.332574 0.289947
-0.019282 -0.967968 -0.534853
-0.114227 0.388427 0.095320
-0.061460 -0.582265 -0.082353
0.419997 -0.566262 -0.131199
-0.064484 -0.797660 -0.266854
-0.183989 0.953206 0.595503
-0.189297 0.843752 0.738307
0.084306 -0.729579 0.321229
0.326508 -0.261897 0.322585
0.367241 -0.657862 -0.227769
-0.029296 0.654099 0.755983
0.216634 0.515403 0.118987
0.004875 -0.174455 -0.160329
-0.064821 -0.745113 0.142497
0.041082 0.235418 -0.196294
-0.029107 -0.645222 -0.065003
0.337629 -0.558700 -0.276048
0.077601 -0.807026 0.089054
0.411412 -0.502552 0.329655
0.234318 0.201410 -0.270896
-0.064770 0.257890 -0.139785
-0.045677 -0.319246 -0.059857
0.025628 -0.102048 -0.183291
0.234503 0.449759 -0.079094
-0.109891 -0.705376 0.103163
0.302883 0.174467 -0.675847
-0.182092 0.791064 0.763814
0.044860 0.726380 0.513772
-0.066293 0.111277 0.032535
-0.006213 -0.801465 0.008444
0.323900 -0.714159 -0.281243
0.213383 -0.394444 -0.071293
0.021901 0.329837 -0.472947
0.268465 -0.078683 -0.162982
-0.071721 0.234212 0.238064
0.233395 0.305722 -0.219112
0.314809 -0.083152 -0.129904
0.427308 -0.174879 0.173624
-0.134394 -0.131046 0.071532
-0.053979 0.359646 0.294628
-0.109981 0.298721 0.124492
0.274874 -0.562175 -0.047473
0.062942 -0.304648 0.356208
-0.121801 0.305099 -0.059384
-0.016764 0.500354 0.132518
0.362107 -0.135896 -0.089199
-0.146862 0.955725 0.643626
0.448118 -0.541650 0.243639
0.211790 -0.555845 0.400712
0.335080 -0.663818 -0.142321
0.319578 -0.706631 0.315880
0.367359 -0.359271 -0.020402
0.337055 -0.129093 -0.112848
0.410521 -0.746040 -0.631484
-0.060073 -0.743620 0.033744
-0.191266 0.728345 0.670204
-0.051398 0.414721 -0.701717
-0.180062 0.846805 0.428737
0.021456 0.363959 -0.657307
0.255492 0.174756 -0.240295
0.245790 -0.464243 0.407099
-0.166573 0.909395 0.707280
0.075879 -0.388902 -0.065224
0.339071 -0.758770 0.090002
0.176616 0.014948 0.316714
-0.126004 -0.551215 0.137351
0.189870 -0.335310 0.384668
-0.088350 -0.134187 -0.083582
-0.014837 0.548394 0.359131
-0.017954 0.826240 0.691467
-0.070236 -0.776407 -0.274109
0.250841 0.374959 0.370581
-0.068288 -0.164794 0.228594
0.048930 -0.156116 0.305610
0.266214 0.211845 -0.467906
0.231528 0.187647 -0.211228
0.327865 0.076949 -0.642554
0.111898 -0.640887 0.374406
0.182568 -0.288679 0.367537
-0.019674 0.780259 0.756305
0.174889 0.615991 0.391989
0.380051 0.253015 0.007357
-0.114417 0.270913 0.073281
-0.231671 0.777223 0.710772
0.031273 0.700966 0.437448
0.123470 0.248454 0.465451
0.261124 0.406362 -0.134214
-0.030158 -0.820443 -0.179457
0.165692 0.501018 0.061631
-0.061991 0.403938 0.260009
0.188064 0.555302 0.249057
-0.032540 0.005001 0.232171
0.029349 -0.795631 0.204256
-0.098624 0.232908 0.112738
0.338403 0.154998 -0.494955
0.347227 -0.693325 -0.028075
0.384460 -0.446605 -0.071069
0.016762 0.738812 0.749779
0.022613 -0.276605 0.325893
-0.330782 0.829340 0.504848
-0.045277 -0.957066 -0.713730
0.192473 0.210103 0.409597
-0.343816 0.857978 0.552574
0.294335 0.186330 -0.582164
0.017007 0.457463 -0.060271
-0.038306 0.857510 0.503347
0.100083 0.715368 0.652631
0.021792 -0.730659 -0.132302
0.189151 0.090963 -0.200584
0.268066 0.511007 0.185993
0.424572 -0.409723 0.292751
0.095645 -0.747716 0.306000
-0.119349 0.300596 0.072476
-0.038031 0.132924 0.233989
-0.023827 -0.844665 -0.814283
0.008895 -0.910246 -0.604821
-0.069081 0.439110 -0.013086
-0.118448 -0.269897 0.032083
0.407434 -0.609510 0.310605
0.362304 0.372473 -0.031191
-0.005865 -0.583470 -0.081732
-0.024701 -0.750805 -0.280772
0.254940 0.174061 0.340936
0.039445 -0.493149 -0.036642
0.144988 0.319520 -0.178042
-0.024695 0.690253 0.421928
0.196001 -0.511597 -0.033678
0.169602 0.158514 -0.199099
0.405871 -0.344355 0.140605
0.352983 0.228821 -0.090676
0.283461 -0.312345 -0.091349
0.352855 0.143657 -0.571396
0.367040 0.224962 0.148763
-0.269722 0.762732 0.469532
-0.090816 -0.567339 0.276475
0.071361 0.694512 0.474992
-0.028972 -0.769134 -0.302979
0.333202 0.366104 0.262767
-0.046586 -0.624467 -0.144864
0.248905 0.238687 0.362160
0.384067 0.306780 0.072432
0.149103 -0.763091 0.109523
-0.045767 -0.748615 0.186545
-0.330166 0.933232 0.559595
0.445428 -0.550933 0.019204
0.420388 -0.388030 0.112601
0.324255 -0.497478 -0.168990
0.129859 0.377038 0.580716
0.413882 -0.276168 0.050266
0.362065 0.005532 0.200383
0.001748 0.506185 0.153866
0.362228 -0.070138 0.241178
-0.187593 0.781640 0.797421
-0.015276 -0.867231 -0.473860
0.031540 -0.777464 -0.106631
0.009263 -0.709502 0.310218
0.339565 -0.680263 -0.191156
0.171879 -0.768418 0.163224
0.306391 -0.672191 -0.245514
0.313316 0.291628 -0.315926
0.325234 -0.752730 0.253082
0.240978 0.096196 -0.177696
0.422821 -0.452119 0.310454
0.361446 -0.659328 -0.468124
0.050345 -0.281424 0.341700
0.240568 0.447967 0.372379
0.327440 0.161673 -0.002006
0.419397 -0.556036 -0.066991
0.435590 -0.194911 0.133847
0.282784 0.059692 0.272120
-0.029570 -0.956460 -0.828382
-0.266710 0.915734 0.626761
0.324535 -0.157401 -0.120149
-0.057929 -0.792789 -0.157264
-0.106005 0.251318 0.095076
0.048772 0.706341 0.460181
0.392152 -0.706340 -0.575481
-0.168330 0.953225 0.542600
0.031569 -0.872469 -0.329122
-0.048026 -0.616691 0.316319
-0.125495 0.340031 -0.018428
-0.062633 0.879759 0.644386
0.166590 0.617224 0.560856
-0.046781 -0.867563 -0.318001
-0.153165 0.703392 0.669761
0.035728 -0.829083 -0.302957
0.034270 0.206534 -0.194937
0.000005 0.416296 0.334751
-0.079144 0.841703 0.759680
0.385061 0.336214 0.023366
0.391574 -0.279907 0.008889
0.393798 -0.028296 -0.004240
-0.048993 0.276619 -0.332465
0.436073 -0.172754 0.088011
-0.055210 -0.308396 0.246413
0.368311 -0.534762 -0.235813
0.327265 -0.718593 -0.555893
0.100049 0.259651 -0.188146
-0.035579 -0.922604 -0.370199
0.067215 0.054419 0.313649
-0.096139 0.652145 0.599508
0.312429 0.296300 0.297098
0.347893 0.207251 -0.392567
-0.002844 0.803387 0.587947
0.318749 0.239723 -0.457495
-0.017121 -0.785368 0.053611
0.411839 -0.513369 -0.081204
0.033363 -0.308251 0.347122
-0.297480 0.964131 0.421642
-0.001704 0.475530 -0.016691
0.430065 -0.568338 0.289376
-0.088577 -0.682702 0.219115
-0.017182 -0.471409 0.361448
0.091895 -0.147309 -0.196165
0.400026 -0.528359 0.340289
0.250353 0.268014 -0.345709
0.023160 0.577228 0.283531
-0.030315 0.444817 -0.741391
0.053251 0.496692 0.067093
0.098430 -0.218063 0.335648
0.039505 0.678826 0.754499
0.301919 -0.667993 -0.275015
0.369577 -0.753568 -0.485172
0.231555 0.106056 -0.198425
0.231355 -0.745796 0.101661
0.108208 -0.060445 0.310701
0.316777 0.307680 -0.235966
0.367277 0.230755 0.086265
0.019908 0.405072 -0.790229
0.092465 0.623174 0.719670
0.360926 -0.421989 0.372105
0.030030 0.297949 -0.351268
-0.016102 0.583513 0.402893
-0.075246 -0.546790 -0.048489
0.098933 -0.804609 0.157973
0.083935 0.708129 0.695845
0.182643 0.479744 -0.010503
0.159924 0.354027 0.545534
0.007033 -0.979122 -0.619075
0.075874 -0.354546 0.379158
-0.056733 0.347351 -0.263990
0.300265 -0.377439 0.390408
0.130608 0.044194 0.329637
0.067789 0.704572 0.501245
0.149494 0.392309 0.585473
-0.026074 -0.855786 -0.449865
0.201906 0.289666 0.438752
-0.096656 0.776252 0.425639
-0.115274 -0.672926 0.148103
0.082049 -0.697775 0.005282
0.319733 0.118235 -0.532601
0.181316 0.341983 0.495654
0.132561 0.582933 0.277083
-0.046584 0.484536 0.051551
-0.005552 -0.839348 -0.403150
0.012981 -0.457472 0.377856
0.034850 -0.784390 -0.228854
-0.021774 0.078554 0.246947
0.412608 -0.517811 -0.138128
0.113879 -0.340865 -0.116578
0.369362 -0.751585 -0.777801
-0.007546 -0.683804 0.316522
-0.031451 -0.829787 -0.247420
-0.043610 0.650140 0.492107
-0.101070 0.272691 0.174431
-0.087079 -0.733654 0.000610
0.152216 -0.311783 -0.131083
-0.021963 -0.134560 -0.151014
0.335468 0.062152 0.215156
0.185996 -0.159495 -0.186920
-0.041209 -0.147012 0.251081
0.036344 0.327011 -0.355365
0.307128 0.496876 0.126557
0.058618 -0.748356 0.300789
0.185174 -0.386483 -0.076462
0.208591 0.075290 0.327066
0.153607 -0.420560 -0.047566
0.309396 -0.231067 -0.111967
-0.093366 -0.626153 -0.075758
0.434218 -0.573792 -0.030190
0.012958 -0.892074 -0.450395
0.340804 0.117141 -0.565834
0.035470 0.453844 0.585390
0.045442 -0.524259 -0.044113
0.393716 0.005298 0.098456
0.337485 0.222026 -0.775769
0.401638 -0.665048 0.023554
0.353737 -0.657705 -0.177153
-0.058943 0.427908 0.242338
0.095785 0.677438 0.698270
-0.428056 0.968528 0.466394
0.166546 -0.718298 0.333253
-0.129800 -0.099318 0.087618
-0.058837 -0.905364 -0.452724
0.143615 -0.645088 -0.021700
0.336662 0.139826 -0.517222
0.256738 -0.286456 0.364123
0.250321 0.517333 0.162839
-0.003027 -0.056112 -0.165973
0.306896 -0.662387 -0.812364
0.303563 -0.560888 -0.236079
0.015755 -0.901794 -0.261065
-0.216260 0.844438 0.711698
-0.051705 0.333737 -0.692942
0.081522 0.470058 -0.004803
-0.043097 0.596292 0.518298
0.339000 -0.321820 -0.038503
-0.054512 -0.119816 -0.123983
0.112071 -0.798518 0.131121
0.172977 -0.775423 0.206240
-0.012150 -0.892551 -0.593652
0.012690 -0.912030 -0.634590
-0.002119 -0.368739 0.355594
0.410399 -0.662508 0.267217
-0.012528 0.573487 0.696668
0.443031 -0.482702 0.012713
0.049291 0.775143 0.627465
-0.130317 -0.627220 0.112227
0.309793 0.112037 -0.702903
-0.250261 0.732589 0.538474
-0.022697 -0.792459 -0.105088
-0.003331 -0.378128 -0.039781
-0.081964 0.906459 0.519660
0.325229 0.127036 -0.828157
-0.190745 0.811064 0.751142
-0.380174 0.929207 0.526536
-0.058137 -0.502004 -0.030114
-0.082028 0.400512 -0.829800
0.264835 0.297952 0.357557
0.451231 -0.564767 0.081959
0.037531 -0.631688 -0.053230
-0.078207 -0.320600 -0.021080
-0.083078 0.199601 0.156068
-0.087341 0.407603 -0.013603
0.402604 -0.768361 -0.644798
0.027509 0.098124 0.303027
-0.075865 -0.780877 -0.176008
0.392794 -0.659893 -0.751767
-0.408879 0.897304 0.491386
0.076017 0.252306 0.433980
-0.034331 0.851991 0.557802
0.354193 0.269297 0.210851
0.293987 0.115565 -0.620439
0.387700 0.149522 -0.767193
-0.150740 0.698829 0.697425
0.184595 0.269408 0.451372
-0.043460 0.250623 -0.217374
0.411725 -0.609152 -0.195323
0.411828 -0.200651 -0.010200
-0.053725 -0.341725 0.288920
-0.303877 0.809776 0.447920
-0.046956 0.657451 0.461832
-0.044933 -0.043136 0.230075
0.023543 0.059151 0.281008
-0.103964 0.260902 -0.088003
0.358095 0.342063 -0.082856
-0.026181 0.619568 0.451279
0.005561 0.260875 0.362954
0.347475 0.234071 -0.407628
-0.295068 0.930394 0.411505
0.405102 -0.751378 -0.665244
0.175066 0.432739 0.563886
-0.102532 -0.450863 0.246615
-0.094606 -0.463202 0.279635
0.157327 -0.254071 -0.159227
-0.042579 -0.285092 0.261195
-0.028093 0.571401 0.426867
0.075220 0.428297 -0.102044
0.003146 -0.453632 -0.022640
0.258347 -0.485931 0.405758
0.245761 0.146336 0.332218
0.359423 0.169091 0.137470
0.091956 0.365641 0.561648
0.314446 -0.647045 -0.798405
0.004329 -0.841458 -0.188885
0.383303 0.034245 0.099417
0.304172 0.310433 -0.257860
0.179597 -0.468682 -0.027022
-0.030968 -0.757038 0.071920
0.380030 0.140539 -0.815265
0.390014 -0.052568 -0.033999
0.171224 0.072684 -0.200772
0.114683 0.212543 0.430127
0.177592 -0.604702 -0.040858
0.362857 0.106563 -0.619662
0.375330 -0.307075 0.004100
-0.039602 0.266668 -0.449027
-0.268229 0.805522 0.674440
0.444524 -0.591918 0.241690
-0.020073 -0.436232 -0.010736
0.454082 -0.481826 0.069681
-0.029984 0.224790 0.309925
0.372407 0.126700 -0.641620
-0.135243 -0.552880 0.090543
0.386295 -0.741350 -0.811684
0.417634 -0.691381 -0.812077
-0.066536 0.205344 0.240091
0.398507 -0.684156 0.257092
-0.018606 -0.107384 -0.156008
0.400806 -0.732444 -0.682905
-0.061363 0.148796 0.042137
-0.190164 0.758052 0.763005
0.003643 0.802856 0.614536
-0.093489 -0.694111 0.193985
0.319301 0.183348 -0.823867
-0.080726 -0.237211 0.218902
0.457606 -0.518067 0.112453
-0.076806 0.213007 0.215237
-0.029065 0.553625 0.455862
-0.153417 0.846543 0.768495
-0.024220 0.524578 0.561014
-0.169036 0.957833 0.661288
0.289164 0.093758 -0.084408
0.062100 0.208499 0.396829
0.133393 0.617290 0.661502
0.428132 -0.389831 0.241690
-0.034127 0.305364 -0.604253
0.434648 -0.427588 0.019628
0.184217 0.118441 -0.200130
-0.042743 -0.960287 -0.766558
0.376241 -0.703571 0.263351
-0.087871 -0.019940 0.176215
-0.136906 -0.595832 0.046737
0.026146 0.794046 0.630838
0.183507 0.386873 -0.145251
0.393561 -0.647859 -0.776172
-0.063654 -0.342913 -0.020407
-0.116221 -0.510181 0.205388
0.334719 0.343719 -0.157197
0.360148 -0.671907 -0.721754
-0.068342 0.237382 -0.118207
-0.067989 -0.836342 -0.322941
0.015965 0.408168 0.431891
0.018189 -0.070588 -0.180560
0.339395 0.098055 -0.012467
0.075022 0.276080 -0.188243
0.437031 -0.492724 0.281803
0.342839 0.238042 -0.804326
-0.149621 0.950268 0.611983
0.320480 -0.658284 0.347234
0.405041 -0.258089 0.013565
-0.009237 -0.679024 -0.094169
0.351845 -0.449570 -0.089795
-0.031817 0.395998 -0.163101
0.069819 -0.101173 0.303525
0.004220 0.245289 -0.239741
-0.050687 -0.889401 -0.338246
0.139047 0.309586 0.518714
0.244334 0.185387 -0.386102
-0.019124 -0.328931 -0.071576
0.038938 -0.806403 0.169238
-0.000302 0.364804 0.349161
-0.075624 0.096186 0.055070
-0.298378 0.793189 0.645726
-0.048330 -0.855744 -0.781169
-0.020403 -0.160132 0.268414
-0.035654 0.376891 -0.434549
-0.067505 -0.888430 -0.412809
-0.053683 0.733450 0.428514
0.282238 0.025635 0.277726
0.371000 -0.729494 0.053513
-0.120685 -0.119344 0.139851
-0.055862 0.787648 0.463177
0.174324 -0.359821 0.391325
-0.320037 0.871273 0.604011
-0.097828 -0.708498 -0.189868
-0.004851 -0.921748 -0.375075
0.328240 -0.762942 0.226775
-0.084304 -0.659282 -0.151469
-0.109856 0.727495 0.763840
0.306269 -0.298087 -0.082449
-0.320553 0.814974 0.539210
-0.093850 -0.506129 -0.020522
0.009010 -0.919691 -0.453063
-0.013735 0.432695 0.309478
0.381012 -0.708334 -0.399364
-0.067809 0.669247 0.535477
0.310050 -0.683041 -0.780776
0.248675 -0.428938 -0.049874
-0.035281 -0.185930 -0.130382
0.421754 -0.593017 0.296328
-0.270116 0.959404 0.469824
0.252443 0.250253 -0.395214
-0.095066 -0.211000 -0.060950
-0.106355 0.277780 0.143903
0.076685 0.013702 -0.203155
-0.034683 -0.976860 -0.582460
-0.039389 0.299780 -0.576823
0.394247 -0.707474 -0.665279
0.453193 -0.531843 0.086282
0.014026 0.357421 -0.227751
-0.109791 -0.590992 -0.042575
0.259309 -0.615644 0.381973
-0.145519 0.943525 0.521370
-0.080363 0.917974 0.733446
0.100830 0.177303 -0.192735
0.093808 0.324172 -0.174323
0.044046 -0.707755 0.327826
0.385369 -0.674996 -0.729365
0.313200 -0.721007 -0.807385
-0.100669 -0.568325 -0.043988
-0.010353 -0.858625 -0.205062
0.032338 0.311779 0.393929
0.323606 0.052616 -0.070560
-0.026015 -0.841734 -0.202010
-0.030005 0.355114 -0.718567
-0.031755 0.466611 -0.760179
-0.366607 0.889220 0.382186
-0.019269 -0.797062 -0.022553
0.349493 -0.752965 -0.713224
-0.106901 0.404562 0.138182
-0.004700 0.443329 -0.750289
0.312721 -0.681544 -0.379168
0.255307 0.445720 0.345592
-0.284175 0.961824 0.443451
0.314842 0.184977 -0.644852
0.020702 -0.609314 -0.101027
0.323439 -0.740525 -0.601139
-0.096188 0.358871 0.213314
0.388052 -0.259989 -0.011505
0.139201 0.510193 0.110216
-0.096636 0.920465 0.539468
0.416271 -0.384975 0.058091
0.358606 -0.616585 -0.806454
0.424183 -0.639317 0.264434
-0.010711 -0.443145 0.364224
-0.041758 0.491238 0.085164
0.222399 -0.775492 0.228489
0.135878 -0.176678 -0.190372
0.229010 -0.509586 -0.036172
-0.022197 0.388401 -0.564235
0.295268 -0.777697 0.155505
0.266956 -0.667554 -0.032911
0.162670 -0.553183 -0.038925
-0.041720 0.369247 -0.278067
0.226533 -0.590706 -0.045689
0.027089 0.096216 -0.149705
0.211989 0.575462 0.405188
0.310560 -0.665830 -0.189597
0.031394 -0.792479 -0.044903
0.195020 -0.714944 0.336120
0.118295 0.414530 0.617578
0.318209 -0.235174 0.316998
0.272300 0.104063 -0.104558
-0.016880 0.626671 0.744451
-0.092678 -0.659114 0.232122
0.280840 -0.142823 0.315128
-0.000746 -0.868177 -0.776870
0.326389 0.263524 -0.302547
0.146755 0.288034 -0.186553
0.107995 -0.800805 0.184414
-0.371448 0.963389 0.503492
0.320935 -0.709136 -0.731991
0.384394 0.197139 -0.819234
0.282484 0.508690 0.160255
0.362695 -0.262866 0.288998
0.419714 -0.664351 0.076853
-0.092237 0.902975 0.477189
0.052014 -0.810093 0.066713
0.407207 -0.643008 -0.320310
0.043251 -0.753986 -0.104915
0.007088 0.810495 0.646086
0.042933 0.178495 -0.193099
-0.108621 -0.021989 0.013148
0.269812 0.164442 0.318588
0.274291 0.342304 -0.188373
0.386603 -0.338204 0.056983
-0.028891 -0.950082 -0.475762
0.366757 -0.767768 -0.697492
0.292512 -0.643943 -0.289770
0.014027 -0.665337 -0.157678
0.099135 0.042050 -0.203711
0.045662 0.346179 -0.177218
0.019233 0.481662 -0.000141
0.128035 -0.217531 0.340635
0.405300 -0.662265 -0.003481
-0.074387 0.317785 0.267635
0.236557 -0.186097 -0.168020
-0.114764 -0.532509 0.237608
-0.090918 -0.435489 0.051543
0.389986 -0.099701 0.219764
-0.120222 -0.174083 -0.015618
0.180320 0.487573 0.560051
0.379221 -0.287687 0.276919
-0.045125 0.861226 0.731241
0.375002 0.266320 0.110614
0.424457 -0.098265 0.129058
0.035706 -0.079206 0.287585
0.142430 -0.630645 0.379715
-0.238422 0.734463 0.588813
-0.025363 0.628152 0.422028
0.366870 -0.690008 -0.567618
-0.051555 0.892656 0.735748
-0.033551 0.391098 -0.603840
0.072114 -0.763746 -0.029271
-0.091522 0.931394 0.810737
-0.090956 0.680376 0.551300
-0.000388 0.465770 -0.040923
-0.124165 -0.564657 0.192633
-0.020688 -0.417890 0.356011
0.332774 -0.711966 -0.816600
0.057877 -0.439850 0.392824
0.000349 -0.952837 -0.524076
0.196047 -0.624757 -0.034436
-0.069876 -0.433637 0.018326
0.362396 -0.554206 -0.267108
0.393150 -0.128515 0.227852
0.395539 0.002471 0.072772
-0.022633 -0.211843 0.272587
0.017639 -0.700419 -0.069388
-0.062363 0.117555 0.174000
0.413212 -0.208799 0.214618
0.334062 0.243954 -0.428692
-0.065465 -0.617685 -0.123544
0.147955 -0.780729 0.214121
-0.227162 0.879286 0.682823
0.140602 0.149399 0.392477
0.248921 0.184288 -0.319257
0.110571 -0.170726 -0.192310
-0.059962 -0.831905 -0.372540
-0.108660 0.832693 0.769557
0.452603 -0.541438 0.216188
-0.133031 -0.606578 0.082499
0.364795 0.360425 0.164559
-0.025883 0.443769 0.277035
0.124981 -0.780308 0.081261
0.013686 -0.780205 0.223595
0.021149 -0.320602 -0.100881
-0.087504 -0.726279 -0.084522
0.027556 -0.050519 0.280387
0.418064 -0.122330 0.176793
-0.084247 -0.734541 0.070835
-0.080724 -0.142295 0.213222
0.275740 -0.651649 -0.061784
0.004359 -0.053247 0.267595
0.230013 0.248543 -0.291683
0.142794 0.075648 0.347323
0.107482 0.433793 0.636000
-0.019041 -0.241943 -0.123127
0.228538 -0.133663 0.324289
0.173214 -0.497171 -0.029832
0.411433 -0.687160 0.125833
-0.107197 0.246798 0.062251
-0.043186 0.086222 0.218883
0.000570 -0.866094 -0.449437
0.356966 0.327183 0.206617
0.354356 0.166217 0.168145
-0.006444 0.725825 0.772126
-0.015407 -0.954092 -0.758269
-0.061317 0.164550 0.195236
-0.114405 -0.502727 0.234853
0.019208 0.404995 -0.140359
0.370534 0.254129 0.133951
0.150775 0.544311 0.206960
-0.132820 -0.622047 -0.002038
-0.446773 0.957500 0.450756
0.204160 -0.406933 0.403560
0.050287 0.748183 0.567548
0.021698 -0.593715 0.369359
0.241277 0.519942 0.192574
0.372968 0.236410 0.058497
0.399027 -0.364697 0.314816
0.210100 -0.205398 -0.169517
0.413784 -0.251643 0.213777
0.033939 -0.302555 -0.119128
0.385652 -0.713061 0.214612
-0.043432 0.865854 0.533084
0.324116 -0.632778 0.358102
0.028559 0.564063 0.259702
-0.084571 0.212526 -0.036000
0.288581 0.373288 0.327967
0.008525 -0.337878 -0.081968
0.328663 -0.236115 -0.092625
-0.061139 0.463782 0.183495
0.116227 0.461583 -0.033461
-0.028706 0.371508 0.321697
-0.029026 0.425289 -0.708514
-0.087109 -0.934377 -0.787653
-0.031764 -0.515843 0.350225
0.156646 0.594054 0.616197
-0.038332 0.306889 -0.627714
-0.097513 -0.420863 0.162331
0.014447 -0.252929 0.307962
0.254575 -0.319054 -0.102285
-0.217469 0.717700 0.582857
-0.094954 -0.437090 0.272109
0.192725 -0.773160 0.182220
-0.034932 -0.882926 -0.543144
0.191627 0.421230 0.512561
0.311079 0.216035 -0.778456
0.268614 -0.514404 0.401718
0.295907 0.176745 -0.630720
0.033757 0.336034 0.420261
-0.048966 0.290544 -0.225933
-0.077481 -0.387500 0.279129
0.135273 -0.000279 -0.205043
0.433636 -0.246781 0.118159
0.177684 0.040845 -0.197480
0.097513 -0.554728 0.396051
-0.010388 -0.690464 -0.146993
-0.099953 0.382631 0.187208
0.163616 -0.176826 -0.184839
-0.328052 0.846289 0.429085
0.431707 -0.122540 0.095454
-0.133133 0.937353 0.590412
0.298620 -0.644449 -0.257159
-0.048566 -0.855831 -0.434646
0.334701 0.180937 -0.413957
0.300599 -0.668476 -0.052656
0.103535 0.388726 -0.142508
0.370520 -0.715859 -0.349772
-0.049342 -0.966207 -0.793339
0.325086 0.029022 -0.083527
0.283476 -0.298550 0.363572
-0.086314 0.003370 -0.032765
-0.090733 -0.450984 0.016335
0.376561 0.044372 0.128379
0.348413 0.125908 0.051367
0.161359 0.376836 0.561546
-0.127732 -0.502911 0.102156
-0.053251 0.195676 -0.070691
-0.115416 -0.290200 0.113888
0.252371 0.492577 0.337579
-0.129200 0.695988 0.609652
0.175848 -0.682579 0.359809
0.096425 0.260000 0.461438
0.209214 -0.288882 0.368756
-0.099148 -0.432873 0.136038
0.247483 -0.183477 0.333201
-0.056082 0.647727 0.526122
0.167649 -0.366818 -0.094038
-0.064411 0.393332 -0.694446
0.005316 -0.869692 -0.822267
-0.069022 -0.787603 -0.241529
0.301285 -0.766826 0.239027
-0.101111 0.422779 0.057005
-0.074527 -0.708398 0.214897
-0.086719 -0.887031 -0.779956
0.068866 0.011614 0.299890
-0.004725 -0.948562 -0.824317
-0.087744 0.207453 0.123387
0.361611 0.174081 -0.726343
0.160146 0.570360 0.266684
-0.135094 -0.644980 0.015440
-0.076273 -0.007458 -0.059700
0.074766 0.275566 0.451756
0.065107 -0.178777 0.316027
-0.368516 0.995465 0.464774
-0.363182 0.858683 0.468885
0.260407 0.131607 0.310144
0.320981 -0.336178 -0.053863
0.071312 0.451757 -0.055950
-0.011456 -0.102693 0.264955
-0.071691 -0.843216 -0.349221
-0.115206 -0.260194 0.008451
-0.105065 -0.131087 -0.054095
0.273322 -0.639540 0.370246
0.291590 -0.677758 -0.029364
0.101459 0.486530 0.046131
-0.251577 0.875324 0.424495
0.396223 -0.210996 -0.030309
0.316728 0.192227 -0.079061
0.330010 -0.283985 -0.067656
-0.052075 0.272400 -0.198393
0.340874 0.183412 -0.027409
0.018313 0.507895 0.642666
0.317067 0.114686 -0.795332
-0.118816 0.277175 0.016973
-0.205515 0.714049 0.462566
0.087286 0.201182 0.413530
0.004105 0.397953 -0.649300
0.451162 -0.569131 0.225015
0.012517 -0.881398 -0.780285
0.376908 0.161421 -0.742574
-0.068360 -0.600177 -0.101966
0.396068 -0.129240 -0.047614
-0.076226 0.181735 0.115968
0.444192 -0.490722 0.229618
-0.030285 -0.758675 0.100300
-0.011814 0.597321 0.378356
-0.072937 -0.262118 -0.069305
0.330176 -0.599258 -0.334582
0.097666 0.725326 0.608519
-0.010610 0.217724 0.331336
0.103515 0.205603 -0.191635
-0.096262 -0.720081 0.121681
0.038209 0.780046 0.681329
0.353296 -0.181277 0.279993
0.203850 0.447501 -0.087970
0.432128 -0.138239 0.130889
0.252338 -0.321002 0.379086
0.010751 0.076745 -0.134380
-0.037806 0.581713 0.678118
0.357663 0.305137 -0.124440
0.162538 0.440599 0.597432
-0.140665 0.940872 0.666631
-0.056331 0.305676 -0.362455
0.305411 -0.647337 -0.205019
-0.210110 0.757332 0.716889
0.224094 -0.776748 0.198754
0.359435 -0.620739 -0.379559
0.034500 -0.779080 -0.148008
-0.011097 -0.910784 -0.274125
0.329939 -0.667888 -0.453162
0.130613 -0.270058 -0.159488
0.101518 0.694453 0.677117
-0.105172 0.887763 0.758446
0.326337 0.148070 -0.466185
-0.075807 0.213428 -0.072620
0.008139 0.567140 0.309670
-0.362881 0.997497 0.403107
0.165876 -0.659281 -0.006486
-0.138600 -0.536218 0.066842
-0.089317 -0.293070 -0.026454
0.375639 0.363789 0.105032
0.074284 0.742345 0.589262
0.367026 0.065149 0.143304
0.101046 -0.733340 0.037851
0.228981 0.292272 -0.240787
-0.291982 0.761034 0.643754
0.200831 0.553839 0.481025
0.143155 0.418983 0.610167
-0.096885 0.423859 0.164170
-0.051472 0.378860 -0.742198
0.029102 0.413787 0.517703
0.371495 0.227223 -0.001831
0.165644 0.576353 0.597063
-0.096997 -0.339586 0.090494
0.309826 -0.299824 0.354478
0.008357 -0.748463 0.271785
0.095015 -0.710458 0.019810
0.348455 0.236519 -0.374108
-0.115171 0.684064 0.488883
0.345075 0.140809 -0.543907
-0.136721 0.737636 0.770815
0.243094 -0.100496 0.316546
0.381054 -0.364747 0.336948
0.354727 0.438036 0.081216
0.051489 -0.025499 0.290176
-0.032036 0.321992 0.332350
0.071994 0.349452 -0.167085
0.176480 -0.313545 0.375985
0.058510 -0.812161 0.121132
0.110151 0.560504 0.704189
0.324610 0.341850 0.281481
0.116190 -0.246029 -0.168386
0.316451 -0.663348 -0.402912
0.255036 0.173977 -0.428448
0.290843 0.107033 -0.653026
-0.014519 0.490513 0.212809
